2.04347826	43.85000000	279.67343140
2.60869565	43.85000000	277.75875854
3.17391304	43.85000000	276.48419189
3.73913043	43.85000000	276.63800049
4.30434783	43.85000000	277.23318481
4.86956522	43.85000000	277.58932495
5.43478261	43.85000000	277.84768677
6.00000000	43.85000000	275.82437134
6.56521739	43.85000000	274.04855347
2.04347826	43.40000000	281.12341309
2.60869565	43.40000000	279.37936401
3.17391304	43.40000000	280.30691528
3.73913043	43.40000000	282.05270386
4.30434783	43.40000000	286.29394531
4.86956522	43.40000000	282.07849121
5.43478261	43.40000000	279.90820312
6.00000000	43.40000000	279.06396484
6.56521739	43.40000000	278.74850464
2.04347826	42.95000000	278.93130493
2.60869565	42.95000000	279.49212646
3.17391304	42.95000000	286.46359253
3.73913043	42.95000000	286.46520996
4.30434783	42.95000000	286.62438965
4.86956522	42.95000000	286.80413818
5.43478261	42.95000000	286.50781250
6.00000000	42.95000000	285.09384155
6.56521739	42.95000000	285.17135620
2.04347826	42.50000000	272.51370239
2.60869565	42.50000000	274.72982788
3.17391304	42.50000000	285.01416016
3.73913043	42.50000000	286.58029175
4.30434783	42.50000000	286.74066162
4.86956522	42.50000000	286.84292603
5.43478261	42.50000000	287.00552368
6.00000000	42.50000000	287.08511353
6.56521739	42.50000000	287.12036133
2.04347826	42.05000000	275.83819580
2.60869565	42.05000000	277.82669067
3.17391304	42.05000000	281.63006592
3.73913043	42.05000000	286.88229370
4.30434783	42.05000000	287.03240967
4.86956522	42.05000000	287.01409912
5.43478261	42.05000000	287.10064697
6.00000000	42.05000000	287.00820923
6.56521739	42.05000000	287.15029907
2.04347826	41.60000000	278.24310303
2.60869565	41.60000000	284.12686157
3.17391304	41.60000000	285.92089844
3.73913043	41.60000000	287.18307495
4.30434783	41.60000000	287.15988159
4.86956522	41.60000000	287.25161743
5.43478261	41.60000000	287.28359985
6.00000000	41.60000000	287.31954956
6.56521739	41.60000000	287.42141724
2.04347826	41.15000000	287.38446045
2.60869565	41.15000000	287.68383789
3.17391304	41.15000000	287.53335571
3.73913043	41.15000000	287.51950073
4.30434783	41.15000000	287.48269653
4.86956522	41.15000000	287.48983765
5.43478261	41.15000000	287.51873779
6.00000000	41.15000000	287.43734741
6.56521739	41.15000000	287.41964722
