4.37386	43.2539	-67.057
4.34285	43.2543	-68.325
4.32249	43.2504	-71.215
4.3228	43.2709	-63.717
4.34877	43.2701	-61.328
4.36398	43.2805	-57.023
4.37956	43.2905	-52.427
4.40617	43.3052	-45.766
4.42193	43.2974	-48.947
4.43855	43.3049	-44.027
4.44989	43.3138	-39.365
4.46632	43.3153	-37.791
4.47069	43.3027	-44.036
4.48723	43.3034	-43.296
4.50216	43.3099	-40.25
4.51848	43.3209	-35.173
4.53887	43.3228	-34.07
4.55571	43.3161	-35.608
4.57636	43.3169	-32.45
4.58725	43.3234	-23.946
4.60131	43.3262	-15.823
4.61055	43.3255	-13.55
4.61982	43.3257	-12.361
4.63255	43.3262	-10.814
4.63614	43.3188	-12.907
4.64397	43.3237	-11.309
4.65395	43.3223	-11.165
4.6624	43.3242	-10.186
4.67016	43.3275	-10.121
4.67721	43.3329	-9.102
4.68436	43.3383	-7.228
4.69133	43.3367	-7.802
4.69848	43.3357	-8.437
4.70529	43.3367	-8.186
4.70948	43.3411	-7.276
4.71539	43.3446	-7.763
4.72271	43.3438	-8
4.73402	43.3407	-8.338
4.74504	43.337	-10.075
4.75501	43.3329	-13.358
4.75942	43.3411	-9.531
4.75396	43.3457	-9
4.74593	43.3456	-8.512
4.73435	43.3477	-8
4.72747	43.3521	-6.502
4.72158	43.3492	-8
4.71484	43.3504	-7.53
4.70397	43.3448	-6.92
4.6969	43.3435	-6.628
4.68971	43.3423	-6
4.68331	43.3451	-6
4.67728	43.3415	-6.067
4.67016	43.3383	-6.62
4.66335	43.3338	-8.847
4.65614	43.3296	-9.448
4.64862	43.3285	-10.158
4.64211	43.3317	-9.398
4.63311	43.3355	-8.504
4.62751	43.331	-10.25
4.61991	43.3329	-10.103
4.61084	43.3328	-10.875
4.60022	43.3347	-11.492
4.58571	43.3341	-17.412
4.5701	43.3278	-27.155
4.55391	43.3331	-27.179
4.52925	43.3356	-28.91
4.51238	43.3321	-30.459
4.49844	43.327	-32.279
4.48284	43.3161	-38.227
4.46693	43.3284	-31.767
4.4439	43.3251	-33.679
4.42493	43.3115	-42.083
4.40465	43.3213	-38.224
4.38831	43.312	-44.624
4.36887	43.3152	-45.252
4.3568	43.3028	-50.167
4.34601	43.2875	-54.489
4.32442	43.2914	-54.156
4.29305	43.2795	-62.438
4.2616	43.2766	-69.231
4.23702	43.2615	-74.808
4.20595	43.2596	-78.697
4.18541	43.2435	-83.786
4.17604	43.2651	-79.371
4.14748	43.2795	-78.929
4.12647	43.2914	-77.058
4.10261	43.2951	-78.856
4.0732	43.3105	-76.697
4.0481	43.3064	-79.455
4.02365	43.3083	-80.174
4.00921	43.2926	-83.892
3.98065	43.2742	-88.093
3.95834	43.2638	-89.344
3.93246	43.2648	-89.123
3.90768	43.255	-90.316
3.86944	43.2631	-86.763
3.82595	43.2696	-81.406
3.8049	43.2792	-73.661
3.76837	43.2785	-63.943
3.7516	43.2939	-50.027
3.73188	43.295	-44.464
3.72428	43.2805	-49.171
3.69937	43.2716	-47.085
3.67746	43.2793	-40.258
3.6589	43.2733	-39.339
3.64117	43.2668	-37.927
3.62344	43.2751	-34.985
3.62214	43.2893	-33.282
3.63519	43.2815	-35.443
3.65308	43.2883	-35.175
3.67078	43.2944	-35.847
3.6898	43.2918	-38.486
3.70375	43.2844	-43.062
3.71215	43.2959	-40.378
3.72562	43.3106	-37.596
3.74536	43.3088	-41.763
3.76726	43.3033	-49.55
3.78372	43.2948	-59.241
3.7996	43.3041	-58.888
3.81844	43.2995	-67.687
3.84519	43.2813	-80.9
3.87327	43.2861	-82.455
3.89882	43.2758	-85.907
3.91715	43.2989	-83.191
3.9498	43.2901	-85.405
3.97849	43.3065	-82.429
4.00683	43.3234	-77.569
4.03454	43.3257	-75.688
4.05621	43.3396	-70.012
4.08034	43.33	-71.171
4.09841	43.3141	-74.623
4.12227	43.3104	-72.838
4.15251	43.3078	-70.874
4.17039	43.289	-74.192
4.19432	43.2802	-74.436
4.22052	43.2828	-71.674
4.24216	43.2843	-68.312
4.27584	43.2882	-59.992
4.30379	43.303	-51.814
4.32545	43.3134	-48.723
4.33784	43.3021	-51.262
4.35118	43.3161	-46.989
4.34484	43.3292	-41.594
4.32625	43.3306	-44.145
4.30833	43.3164	-48.053
4.29047	43.319	-49.43
4.2785	43.3042	-53.07
4.25969	43.3119	-52.975
4.24315	43.3014	-58.301
4.20826	43.3067	-62.777
4.18362	43.3055	-67.952
4.17457	43.3237	-60.901
4.13486	43.3268	-66.16
4.10712	43.3298	-68.426
4.09874	43.3456	-62.736
4.12189	43.3423	-61.427
4.15141	43.3424	-56.325
4.17908	43.3421	-51.371
4.19422	43.3302	-53.896
4.21528	43.3276	-51.533
4.22793	43.3133	-55.879
4.25428	43.3281	-49.249
4.27271	43.3219	-49.02
4.28056	43.3348	-46.646
4.30758	43.3303	-45.726
4.3216	43.3449	-37.849
4.3448	43.3442	-34.007
4.36366	43.3303	-37.801
4.38202	43.3269	-38.072
4.39892	43.3371	-32.233
4.41537	43.338	-30.872
4.42851	43.3267	-33.775
4.44251	43.3374	-29.93
4.45634	43.3357	-29.439
4.46921	43.34	-28.197
4.48219	43.3281	-31.736
4.49622	43.337	-28.689
4.50632	43.3432	-26.632
4.52891	43.3456	-25.101
4.54154	43.3447	-24.578
4.55225	43.3419	-23.346
4.56616	43.3413	-19.4
4.57645	43.3386	-17.708
4.58678	43.3412	-12.083
4.59747	43.341	-9.701
4.60586	43.3421	-8.789
4.61227	43.3388	-9.216
4.61976	43.3401	-8.38
4.62746	43.3397	-8.182
4.63376	43.3432	-7.051
4.6407	43.3435	-7
4.64532	43.3394	-7.115
4.65155	43.335	-8.383
4.65783	43.3393	-6.85
4.6644	43.3421	-5.271
4.67102	43.3443	-5.444
4.67657	43.3479	-6
4.68935	43.3488	-6
4.702	43.3504	-6.779
4.66374	43.3479	-5.351
4.65769	43.3452	-5.846
4.6516	43.3425	-6
4.65197	43.3483	-6
4.64027	43.349	-7
4.62826	43.3496	-7.609
4.62092	43.3466	-7.453
4.61275	43.3449	-7.91
4.60735	43.3499	-5.915
4.60087	43.3471	-6.41
4.59288	43.3465	-7.512
4.58076	43.3466	-10.374
4.57192	43.3466	-13.926
4.5569	43.35	-18.33
4.54601	43.3575	-18.271
4.53376	43.3615	-19.179
4.52362	43.3548	-22.452
4.50759	43.3559	-23.585
4.4939	43.3475	-25.611
4.48405	43.3401	-27.562
4.4787	43.349	-25.8
4.48669	43.3565	-23.436
4.4923	43.3671	-20.885
4.50675	43.3686	-20.533
4.51979	43.3652	-19.978
4.53074	43.3718	-17.088
4.54045	43.3711	-16.08
4.54729	43.3656	-14.807
4.55715	43.363	-12.44
4.56485	43.3591	-8.112
4.57061	43.3535	-9.161
4.5774	43.3551	-8.484
4.58398	43.3531	-6.922
4.59029	43.3514	-6.165
4.60138	43.3534	-5.165
4.61466	43.3509	-6.656
4.59158	43.3565	-6.011
4.58146	43.3597	-7.39
4.57231	43.3595	-7.909
4.57007	43.3651	-8.81
4.56501	43.3714	-8.431
4.55886	43.3744	-8.154
4.55186	43.373	-10.279
4.54225	43.3787	-13.766
4.53036	43.3808	-15.02
4.51701	43.3766	-17.583
4.50408	43.3789	-18.065
4.49405	43.3809	-18.292
4.4849	43.3771	-19.315
4.48186	43.369	-21.448
4.47235	43.3651	-22.69
4.46672	43.3516	-25.617
4.45037	43.349	-27.12
4.43459	43.3472	-27.662
4.42131	43.3524	-26.876
4.40962	43.3558	-27.31
4.39941	43.3501	-28.974
4.38359	43.3419	-31.921
4.36512	43.3452	-32.149
4.35525	43.3568	-29.743
4.3377	43.3582	-30.039
4.3157	43.3617	-30.894
4.30255	43.3448	-42.55
4.29246	43.3576	-39.139
4.27597	43.357	-41.358
4.26477	43.338	-46.667
4.23225	43.3446	-46.651
4.23475	43.3292	-50.31
4.21768	43.3506	-46.81
4.20206	43.3466	-48.413
4.18723	43.355	-46.936
4.16734	43.3583	-47.005
4.15097	43.3627	-47.316
4.1348	43.3579	-52.045
4.10304	43.3662	-52.821
4.08454	43.3602	-57.962
4.06512	43.3565	-62.058
4.04564	43.3665	-59.607
4.02295	43.3515	-68.708
4.00548	43.3408	-73.205
3.97194	43.3294	-76.953
3.94607	43.318	-79.677
3.91099	43.3257	-76.052
3.88412	43.3072	-78.415
3.84946	43.3067	-72.453
3.82842	43.3179	-61.096
3.79318	43.3189	-49.311
3.76137	43.3181	-41.832
3.74694	43.3232	-38.056
3.73155	43.3261	-35.441
3.71015	43.3142	-35.509
3.69727	43.3066	-35.883
3.68324	43.3025	-35.406
3.67372	43.3116	-33.218
3.65571	43.3039	-32.754
3.64128	43.2954	-33.507
3.62847	43.3013	-31.848
3.60806	43.3027	-28.972
3.60577	43.2891	-33.003
3.59498	43.2816	-32.606
3.58068	43.2808	-31.282
3.56473	43.2845	-23.386
3.55456	43.2721	-25.918
3.53888	43.2581	-27.093
3.52514	43.2569	-21.58
3.51667	43.2602	-15.451
3.50566	43.2566	-13.185
3.49782	43.2529	-14.661
3.48619	43.2598	-8.826
3.47671	43.2579	-9.215
3.46705	43.2539	-11.562
3.46102	43.2584	-9.98
3.4527	43.258	-10.803
3.44222	43.2573	-12.238
3.43458	43.2513	-13.682
3.42562	43.2564	-12.46
3.41618	43.2553	-13.724
3.41276	43.2483	-15.416
3.4019	43.2561	-13.538
3.39272	43.2523	-14.456
3.38224	43.2546	-13.903
3.37519	43.2609	-12.089
3.36572	43.2575	-12.179
3.35167	43.2578	-9.645
3.34365	43.2525	-11.005
3.33589	43.2505	-10.337
3.3297	43.2466	-10.742
3.32446	43.2543	-6.93
3.33055	43.2569	-6.334
3.34059	43.2584	-6.861
3.34809	43.2649	-7
3.3548	43.2629	-8.67
3.36145	43.265	-7.731
3.37625	43.2671	-9.992
3.38799	43.2617	-12.191
3.39727	43.2634	-11.776
3.41009	43.2611	-12.329
3.41571	43.2675	-10.705
3.425	43.265	-10.405
3.43366	43.2598	-11.464
3.4451	43.2639	-9.653
3.45135	43.2689	-8.04
3.45877	43.2648	-8.456
3.46756	43.263	-8.197
3.47466	43.2633	-7.815
3.48074	43.2662	-6.485
3.48865	43.2657	-6.976
3.49596	43.26	-9.926
3.50206	43.263	-8.673
3.50903	43.2645	-8.111
3.51753	43.2676	-10.301
3.52645	43.2654	-15.916
3.53641	43.2688	-19.301
3.54406	43.276	-18.445
3.53436	43.281	-9.907
3.52678	43.274	-11.37
3.51518	43.2748	-8.496
3.50883	43.2723	-6.675
3.5035	43.2686	-5.821
3.49596	43.2681	-6.26
3.48955	43.2746	-6.053
3.48274	43.2735	-6.072
3.47662	43.2709	-6.805
3.46935	43.2711	-7
3.45998	43.2719	-7.178
3.45263	43.2759	-6.28
3.44603	43.2754	-6.477
3.44297	43.2707	-8.026
3.43579	43.2668	-8.96
3.42517	43.2736	-8.325
3.41683	43.2733	-8.596
3.40934	43.2734	-8.584
3.40452	43.2683	-10.401
3.39423	43.2706	-9.592
3.38803	43.2736	-8.083
3.38102	43.2721	-8.406
3.37489	43.2747	-7.083
3.36993	43.2708	-7.501
3.36292	43.2705	-6.764
3.35568	43.2699	-7.015
3.34796	43.2725	-9.96
3.34154	43.2705	-13.438
3.34047	43.2645	-6.784
3.33491	43.2604	-5.99
3.33166	43.2646	-5.195
3.32122	43.2591	-6.516
3.31038	43.2542	-6.241
3.36011	43.2755	-5.634
3.36693	43.2757	-6.719
3.37166	43.2796	-5.648
3.37869	43.2794	-6.404
3.38502	43.2781	-6.624
3.39151	43.2786	-7.121
3.40246	43.2766	-7.612
3.41333	43.2789	-6.674
3.42079	43.2784	-6.787
3.43157	43.2777	-6.468
3.43517	43.2726	-7.573
3.43978	43.2771	-6.744
3.44473	43.2826	-6.09
3.45322	43.2829	-6.053
3.46447	43.2784	-5.422
3.47706	43.2767	-4.54
3.43327	43.2896	-5.246
3.43629	43.2833	-6.008
3.42611	43.2825	-5.227
3.42125	43.2855	-5.45
3.41508	43.2853	-5.722
3.40638	43.2823	-5.597
3.39796	43.281	-6.568
3.39551	43.2863	-3.199
3.3832	43.2836	-5.651
3.40788	43.2887	-5
3.4205	43.2904	-5.54
3.42667	43.288	-5.268
3.50237	43.2746	-5.284
3.52215	43.2826	-6.357
3.53264	43.2865	-7.534
3.54562	43.2851	-13.34
3.55498	43.2807	-20.969
3.55939	43.2915	-16.696
3.54994	43.295	-9.809
3.54246	43.2951	-7.795
3.53805	43.2903	-7.161
3.52798	43.2909	-6.45
3.53605	43.2982	-7.105
3.54417	43.3054	-9.938
3.54883	43.3008	-8.286
3.5619	43.2995	-13.432
3.579	43.2938	-24.396
3.59347	43.2953	-28.708
3.58895	43.3062	-22.036
3.57292	43.3013	-18.198
3.56677	43.31	-10.056
3.55902	43.3097	-8.441
3.55428	43.3048	-8.513
3.55222	43.3126	-6.713
3.55824	43.3149	-5.846
3.56615	43.316	-6.262
3.57357	43.3175	-9.313
3.57817	43.3092	-15.983
3.58468	43.3204	-13.265
3.59595	43.3149	-20.404
3.60878	43.3164	-24.243
3.61955	43.3096	-29.751
3.6311	43.3118	-30.046
3.6414	43.3071	-32.116
3.65397	43.3158	-31.098
3.66186	43.3262	-29.723
3.67572	43.3229	-31.337
3.69004	43.3214	-32.435
3.7102	43.327	-32.984
3.72278	43.3407	-31.119
3.7365	43.3418	-32.365
3.74795	43.3357	-35.183
3.76651	43.3326	-38.159
3.78379	43.3305	-42.123
3.80271	43.3298	-46.327
3.81763	43.336	-46.949
3.84346	43.329	-58.532
3.86407	43.3295	-64.883
3.88807	43.3318	-70.315
3.89739	43.345	-66.364
3.91622	43.3478	-68.004
3.9445	43.3461	-71.883
3.96441	43.3557	-68.935
3.98649	43.3497	-71.065
4.00406	43.3592	-66.587
4.02379	43.3689	-61.055
4.03721	43.3889	-48.858
4.05671	43.3776	-52.943
4.07384	43.3735	-52.845
4.09063	43.3845	-45.55
4.11238	43.3856	-43.448
4.13029	43.3751	-45.983
4.15986	43.3744	-44.888
4.18002	43.3682	-44.813
4.19782	43.3673	-45.576
4.22247	43.363	-44.441
4.2437	43.3602	-44.562
4.26156	43.3506	-45.458
4.25692	43.3736	-37.843
4.23503	43.3726	-41.364
4.21243	43.3733	-43.416
4.19986	43.3883	-39.615
4.1791	43.3823	-42.63
4.16332	43.396	-39.431
4.14603	43.3876	-42.971
4.1289	43.3898	-42.655
4.12085	43.402	-39.774
4.09855	43.4006	-40.755
4.07781	43.3931	-42.155
4.0612	43.3913	-44.873
4.04934	43.408	-38.128
4.0273	43.4048	-40.84
4.01212	43.3921	-48.783
4.0036	43.376	-58.52
3.98136	43.3684	-63.147
3.95984	43.3772	-58.673
3.93431	43.3672	-61.884
3.90706	43.3738	-52.394
3.89206	43.3596	-57.353
3.87367	43.3471	-58.248
3.85246	43.3437	-53.664
3.83353	43.3515	-44.334
3.81683	43.3494	-41.266
3.79932	43.3429	-40.626
3.77908	43.3438	-36.97
3.75967	43.3432	-34.787
3.74738	43.3497	-31.755
3.73262	43.3523	-30.284
3.71511	43.354	-27.844
3.70505	43.3424	-29.831
3.69447	43.3332	-30.356
3.67894	43.3348	-29.65
3.66741	43.34	-27.388
3.65467	43.337	-26.234
3.64873	43.3276	-28.214
3.63918	43.3187	-29.957
3.62368	43.32	-26.494
3.6111	43.3283	-19.657
3.60084	43.3244	-18.526
3.59025	43.3301	-10.403
3.58305	43.3302	-7.54
3.57806	43.326	-7.336
3.57256	43.3228	-7.032
3.56606	43.3223	-5.928
3.56029	43.3199	-5.234
3.5684	43.3271	-6
3.57746	43.3337	-6.049
3.58987	43.3361	-8.337
3.60267	43.3344	-12.75
3.61547	43.3393	-16.267
3.62145	43.3322	-21.144
3.6358	43.33	-24.908
3.64002	43.341	-21.91
3.654	43.3493	-21.742
3.67137	43.3501	-24.528
3.68908	43.3487	-27.008
3.69852	43.3606	-24.826
3.71018	43.3626	-24.674
3.71977	43.3682	-23.806
3.73441	43.3684	-25.504
3.74602	43.3614	-28.798
3.76424	43.3546	-32.608
3.78274	43.3609	-34.018
3.80436	43.3584	-37.504
3.8203	43.3685	-37.003
3.83936	43.3675	-40.136
3.85614	43.3603	-45.758
3.87426	43.3646	-48.836
3.88404	43.3774	-45.021
3.89342	43.3948	-38.92
3.91904	43.3898	-46.412
3.93421	43.3816	-53.115
3.94461	43.3936	-47.197
3.92865	43.4095	-36.155
3.90889	43.4008	-38.582
3.89042	43.4085	-30.985
3.87937	43.3975	-34.704
3.86747	43.391	-36.323
3.86169	43.3757	-40.551
3.84904	43.3882	-34.556
3.83224	43.3815	-34.513
3.81061	43.3827	-31.516
3.79827	43.372	-33.3
3.78235	43.3791	-27.416
3.76898	43.3743	-27.537
3.77014	43.3639	-31.081
3.75773	43.3676	-28.609
3.74133	43.3786	-22.661
3.72863	43.3764	-21.924
3.7171	43.3779	-19.725
3.70681	43.3731	-20.491
3.69257	43.3717	-20.016
3.68126	43.3613	-21.675
3.66689	43.3629	-19.4
3.65894	43.357	-20.477
3.65096	43.3628	-16.613
3.64072	43.3582	-15.716
3.64292	43.3496	-19.449
3.63196	43.3483	-17.103
3.62851	43.3395	-19.617
3.61978	43.3472	-13.802
3.60677	43.3445	-9.575
3.59974	43.3445	-7.663
3.59553	43.34	-8.253
3.58556	43.341	-7.164
3.59419	43.3479	-7.253
3.60314	43.3546	-7
3.60721	43.35	-7
3.61306	43.3531	-7.76
3.61234	43.3611	-7.331
3.6181	43.3574	-7.89
3.62541	43.3565	-10.227
3.63277	43.3651	-8.674
3.62571	43.3626	-8.054
3.62142	43.3677	-7
3.6281	43.3691	-7.372
3.63823	43.3745	-10.351
3.64304	43.3698	-12.493
3.65669	43.371	-14.96
3.67031	43.374	-14.356
3.68118	43.3713	-17.814
3.68199	43.3803	-16.042
3.67338	43.3804	-14.612
3.66171	43.3776	-13.595
3.65037	43.3778	-12.749
3.64023	43.3804	-8.723
3.63054	43.3743	-7.664
3.65026	43.3862	-9.021
3.6585	43.3849	-10.19
3.66693	43.3849	-11.003
3.67925	43.386	-12.162
3.69202	43.3837	-15.62
3.70034	43.3792	-17.02
3.70851	43.3844	-15.249
3.72147	43.3867	-16.56
3.73293	43.385	-19.304
3.74888	43.3886	-19.974
3.75569	43.3786	-24.392
3.76078	43.3872	-21.604
3.77279	43.3879	-22.285
3.79036	43.3888	-24.22
3.80287	43.3907	-26.177
3.82063	43.3921	-29.373
3.83217	43.4004	-28.644
3.85279	43.4027	-30.014
3.87267	43.4077	-30.875
3.88519	43.4217	-28.015
3.89827	43.4225	-28.604
3.90632	43.4143	-31.141
3.91993	43.4191	-30.416
3.93608	43.421	-31.426
3.94277	43.4054	-39.887
3.96144	43.3987	-45.761
3.98376	43.3883	-52.026
3.99739	43.4051	-41.918
3.97593	43.4072	-40.656
3.9552	43.4121	-37.35
3.95014	43.4276	-30.373
3.96973	43.4236	-32.658
3.9902	43.4251	-32.968
4.00129	43.4168	-36.943
4.0124	43.4082	-39.573
4.01608	43.4202	-35.745
4.03618	43.4157	-36.226
4.05789	43.4215	-35.417
4.07064	43.4166	-37.008
4.07624	43.4063	-39.246
4.08996	43.4178	-35.717
4.10892	43.4091	-37.825
4.1327	43.417	-34.915
4.14309	43.4034	-38.189
4.16012	43.4119	-33.936
4.17407	43.4135	-32.263
4.18335	43.3985	-36.695
4.19696	43.4032	-33.845
4.2118	43.4031	-32.484
4.22072	43.3941	-34.139
4.22336	43.383	-38.53
4.2431	43.3849	-34.255
4.269	43.3854	-30.222
4.27784	43.37	-35.064
4.29918	43.3733	-29.824
4.31136	43.371	-29.116
4.32636	43.3693	-28.516
4.34689	43.366	-28.528
4.35924	43.3704	-27.112
4.36892	43.3614	-27.987
4.38639	43.3521	-29.122
4.38374	43.3624	-27.462
4.37522	43.3736	-25.341
4.39701	43.3684	-25.59
4.41182	43.3654	-25.147
4.43125	43.3667	-23.998
4.43875	43.3585	-25.321
4.45493	43.3612	-23.718
4.45799	43.3737	-21.31
4.44334	43.37	-23.393
4.42515	43.3756	-22.909
4.40681	43.3776	-23.684
4.39108	43.3807	-23.699
4.37466	43.3866	-23.606
4.36267	43.381	-25.032
4.34566	43.3849	-25.337
4.33902	43.3747	-27.068
4.33126	43.3839	-26.181
4.31876	43.379	-27.522
4.30017	43.3835	-27.979
4.28718	43.377	-30.34
4.28806	43.3872	-27.964
4.29424	43.3954	-26.554
4.30578	43.3928	-26.866
4.32079	43.393	-25.181
4.3357	43.3944	-24.351
4.34742	43.3962	-23.22
4.35762	43.3913	-24.047
4.37034	43.4005	-20.888
4.37977	43.395	-21.637
4.39128	43.3903	-22.159
4.40172	43.386	-22.353
4.41684	43.3815	-22.427
4.42934	43.3854	-21.233
4.44173	43.3821	-21.281
4.45509	43.3842	-19.782
4.46919	43.3843	-18.879
4.4702	43.3747	-21.079
4.48647	43.3865	-17.615
4.49832	43.3884	-16.795
4.51043	43.3892	-15.338
4.5223	43.3871	-15.412
4.53788	43.3875	-13.404
4.54623	43.3878	-11.452
4.55261	43.3835	-10.686
4.56248	43.3793	-8.538
4.56375	43.3844	-9.35
4.56017	43.3919	-9.779
4.56659	43.3882	-9.009
4.56691	43.3952	-9
4.57482	43.392	-9
4.5731	43.4007	-8.915
4.58177	43.3951	-4.096
4.58179	43.4022	-8
4.59031	43.4002	-8
4.58875	43.4066	-8
4.59664	43.4046	-6.211
4.5954	43.4104	-6.655
4.58529	43.4155	-8
4.58144	43.4096	-8
4.57482	43.4066	-8.209
4.56753	43.4084	-9.794
4.56041	43.4	-9.755
4.55185	43.3992	-10.778
4.55225	43.3923	-10.73
4.53939	43.3951	-12.273
4.52981	43.3942	-14
4.52233	43.3986	-14
4.513	43.3986	-14.607
4.50279	43.3987	-15
4.49275	43.3973	-15.329
4.48055	43.3949	-16.232
4.47113	43.3921	-17.353
4.46129	43.3905	-18.14
4.45291	43.3949	-17.879
4.4426	43.3975	-18.301
4.43207	43.3955	-19.085
4.41935	43.3987	-18.982
4.41259	43.3896	-21.247
4.40162	43.3954	-20.551
4.38971	43.3999	-20.028
4.38315	43.4096	-17.701
4.37048	43.4141	-16.618
4.35598	43.4028	-20.989
4.33888	43.404	-21.907
4.31759	43.4046	-22.892
4.30595	43.4023	-24.467
4.29441	43.4049	-24.83
4.27668	43.3993	-27.08
4.26537	43.395	-28.606
4.25615	43.4017	-27.844
4.24396	43.4052	-28.48
4.23381	43.3988	-30.359
4.2258	43.4108	-28.322
4.20369	43.4137	-29.637
4.18808	43.4147	-30.903
4.18301	43.4268	-27.155
4.16744	43.4233	-30.314
4.14957	43.4203	-32.733
4.13706	43.4269	-31.869
4.12685	43.4335	-30.7
4.10964	43.4208	-35.001
4.09247	43.4336	-31.942
4.07766	43.4264	-33.837
4.06585	43.4353	-32.528
4.05033	43.4383	-31.815
4.0407	43.4282	-34.232
4.02364	43.4333	-32.855
4.00496	43.4286	-33.146
3.9929	43.4372	-30.21
3.97917	43.4311	-31.034
3.9716	43.4398	-28.442
3.95789	43.437	-28.121
3.94534	43.4432	-26.822
3.93248	43.4391	-27.303
3.92419	43.4304	-28.607
3.90245	43.4323	-26.538
3.8918	43.4379	-24.91
3.87912	43.4367	-24.094
3.87023	43.4251	-26.39
3.85657	43.4192	-25.185
3.84157	43.4065	-27.648
3.82756	43.4095	-23.21
3.80839	43.3997	-23.15
3.79896	43.404	-17.841
3.78574	43.3975	-19.478
3.77545	43.4023	-15.648
3.76546	43.403	-14.684
3.75926	43.3968	-16.913
3.74181	43.3988	-14.603
3.73041	43.394	-15.458
3.71578	43.3961	-10.536
3.70955	43.3913	-10.629
3.70004	43.3872	-11.347
3.69351	43.3922	-7
3.68672	43.3912	-7.491
3.68145	43.3918	-5.062
3.67392	43.3904	-3.988
3.66821	43.3926	-0.00
3.66113	43.3912	-2.568
3.69712	43.3967	-7
3.70497	43.3972	-7.765
3.70952	43.3991	-6.835
3.7113	43.4007	-7.068
3.71792	43.4033	-9.45
3.72532	43.4034	-12.038
3.73417	43.4024	-13.1
3.74461	43.4106	-13.179
3.75192	43.4037	-14.556
3.75901	43.4108	-12.337
3.77011	43.4101	-11.792
3.7799	43.4103	-11.885
3.78859	43.4067	-14.172
3.79169	43.4135	-9.895
3.80077	43.4125	-13.163
3.81051	43.4083	-17.783
3.81749	43.4152	-16.196
3.80324	43.4205	-10.403
3.79524	43.4193	-8.967
3.78391	43.4174	-7.836
3.77632	43.4194	-8.19
3.76835	43.4188	-10.043
3.75517	43.4184	-10.594
3.74769	43.4164	-10.869
3.7345	43.4187	-6.555
3.73347	43.4095	-12.344
3.72362	43.4137	-6.293
3.71347	43.408	-7.85
3.70893	43.4043	-6.214
3.74625	43.4225	-7.299
3.75803	43.4262	-8.16
3.76554	43.4245	-8.249
3.77255	43.4241	-7.624
3.77944	43.4252	-6.436
3.78687	43.4231	-6.649
3.79406	43.4257	-7.122
3.80158	43.4286	-7.335
3.80942	43.427	-8.395
3.81609	43.4222	-11.527
3.82846	43.4216	-17.312
3.83732	43.4155	-23.381
3.84588	43.4273	-20.399
3.83158	43.4305	-10.862
3.82059	43.4284	-10.65
3.81417	43.432	-7.187
3.80303	43.4348	-6
3.79511	43.4324	-5.643
3.78782	43.4297	-5.874
3.78157	43.4337	-5
3.77003	43.4296	-6.498
3.79236	43.4388	-5.084
3.79925	43.4394	-5.91
3.81034	43.4376	-6
3.81841	43.4372	-6.537
3.82483	43.4336	-6.963
3.83226	43.4379	-7.743
3.84137	43.4385	-12.235
3.85952	43.434	-21.03
3.86821	43.4406	-20.636
3.87786	43.4501	-20.666
3.89302	43.4479	-23.411
3.90736	43.447	-24.365
3.91416	43.4373	-26.221
3.92171	43.446	-26.086
3.92026	43.4552	-24.812
3.93656	43.4511	-26
3.94746	43.4572	-26
3.95981	43.4481	-27.177
3.97516	43.4509	-27
3.98947	43.4492	-27.828
4.00789	43.4405	-30.226
4.02076	43.4487	-29.159
4.03528	43.4415	-30.307
4.05628	43.45	-30.001
4.07068	43.4536	-28.655
4.07965	43.4392	-31.594
4.09667	43.444	-29.56
4.10967	43.4403	-30.34
4.11509	43.4488	-26.626
4.10607	43.4551	-25.422
4.09377	43.4571	-26.039
4.08507	43.45	-28.806
4.0811	43.4598	-26.909
4.09078	43.4668	-23.18
4.10139	43.4693	-20.9
4.11199	43.4667	-20.108
4.12403	43.4646	-17.566
4.12692	43.4507	-24.343
4.13752	43.4421	-26.341
4.14848	43.4322	-29.46
4.17139	43.4357	-24.993
4.18566	43.4395	-18.299
4.19314	43.4329	-22.059
4.19916	43.4255	-25.781
4.21676	43.4248	-24.091
4.23115	43.4231	-22.677
4.24187	43.4153	-25.473
4.261	43.412	-25.042
4.27453	43.4143	-23.132
4.28653	43.4123	-22.704
4.29535	43.4162	-20.211
4.30427	43.4125	-21.003
4.31689	43.4168	-17.96
4.33079	43.4115	-19.761
4.34664	43.4118	-18.17
4.35832	43.4145	-16.797
4.3685	43.4239	-13.408
4.38075	43.4204	-14.653
4.39376	43.4204	-14.092
4.39892	43.4113	-16.412
4.40814	43.4045	-17.923
4.41522	43.4105	-16.49
4.42554	43.4111	-16.262
4.4306	43.4038	-17.42
4.44262	43.4061	-16.432
4.45276	43.4034	-16.598
4.46674	43.3993	-16.167
4.47705	43.4038	-14.853
4.48764	43.4059	-14.29
4.49857	43.4061	-14.272
4.50871	43.4059	-14.25
4.52279	43.4083	-12.998
4.52943	43.4034	-13.063
4.5439	43.4018	-11.731
4.5489	43.4068	-11.132
4.55677	43.4081	-10.966
4.55954	43.4163	-10.855
4.54742	43.413	-11.309
4.53752	43.4093	-12.385
4.52836	43.4141	-12.311
4.51503	43.4121	-13.196
4.50433	43.4126	-13.485
4.49458	43.4126	-13.488
4.48812	43.4177	-12.871
4.47892	43.4129	-13.446
4.46796	43.4072	-15.125
4.45875	43.4104	-14.756
4.44967	43.4172	-13.939
4.43535	43.4113	-15.647
4.42854	43.4178	-14.731
4.42312	43.4234	-13.385
4.40921	43.4171	-14.89
4.40384	43.4232	-13.437
4.39908	43.4295	-11.364
4.38723	43.4248	-13.038
4.37909	43.4274	-12.138
4.37348	43.4329	-10.14
4.36017	43.4313	-10.747
4.35978	43.4244	-13.233
4.35141	43.4224	-13.945
4.33719	43.423	-14.713
4.32706	43.4195	-16.726
4.32085	43.4285	-13.725
4.30751	43.423	-16.807
4.29533	43.4242	-16.932
4.28312	43.4216	-19.21
4.26776	43.4217	-19.592
4.25627	43.4223	-19.953
4.24231	43.4242	-20.421
4.23414	43.4343	-15.417
4.24562	43.4327	-15.319
4.2578	43.43	-15.681
4.26705	43.4326	-14.357
4.27605	43.428	-16.558
4.28678	43.4312	-14.606
4.29804	43.4351	-12.363
4.30894	43.4327	-13.166
4.31878	43.4371	-10.647
4.32564	43.4393	-9.771
4.33155	43.4358	-10.827
4.33005	43.4277	-13.751
4.33856	43.4306	-12.372
4.35241	43.4289	-11.594
4.35517	43.4371	-8.64
4.34715	43.434	-10.102
4.34092	43.4398	-8.667
4.33595	43.4464	-6.876
4.32355	43.4449	-7.823
4.31647	43.4425	-8.716
4.30938	43.4416	-9.023
4.30424	43.4459	-7.466
4.29676	43.4461	-7.388
4.29195	43.4402	-10.519
4.28361	43.4427	-9.64
4.27645	43.4365	-12.494
4.26803	43.4416	-10.034
4.25832	43.4377	-12.419
4.24949	43.4441	-9.886
4.24063	43.442	-10.956
4.22781	43.4421	-12.457
4.21895	43.4348	-16.863
4.20772	43.4319	-20.907
4.20068	43.4394	-15.806
4.1909	43.446	-12.472
4.20039	43.4481	-10.875
4.20843	43.4489	-9.542
4.21373	43.444	-11.867
4.22357	43.4487	-9.631
4.23426	43.4465	-9.552
4.24601	43.4512	-7.479
4.2534	43.4507	-7
4.2583	43.4463	-8.761
4.26533	43.4468	-8.17
4.27552	43.4448	-8.861
4.28454	43.4513	-6.856
4.2915	43.45	-6.026
4.29761	43.4529	-6
4.30406	43.4519	-6
4.31023	43.45	-6.004
4.31727	43.4481	-6.689
4.32326	43.4516	-5.933
4.33009	43.4497	-6.111
4.33626	43.4525	-4.747
4.34268	43.4482	-5.544
4.3483	43.4447	-6.269
4.35485	43.4427	-6.759
4.36181	43.4418	-6.979
4.36602	43.4361	-9.018
4.37723	43.4389	-7.997
4.38635	43.4316	-10.629
4.39018	43.4372	-8.593
4.39855	43.4396	-7.759
4.40674	43.4375	-8.49
4.41284	43.4328	-10.746
4.413	43.4247	-13.082
4.4217	43.4306	-11.648
4.43084	43.4275	-12.394
4.43735	43.4189	-14.471
4.43986	43.4257	-12.83
4.4487	43.427	-12.756
4.4589	43.4197	-13.638
4.46783	43.4166	-13.87
4.47964	43.4233	-12.647
4.49263	43.4234	-12.198
4.49903	43.4189	-12.727
4.50941	43.4191	-12.713
4.51896	43.4223	-12.324
4.53212	43.4244	-11.22
4.53648	43.4159	-11.717
4.54324	43.4199	-11
4.55201	43.4181	-10.827
4.56124	43.4263	-9.494
4.5669	43.4177	-9.825
4.57365	43.4149	-8.325
4.58148	43.4214	-8
4.57078	43.4228	-8.506
4.56888	43.432	-8.156
4.5774	43.4282	-8
4.58794	43.4283	-5.162
4.58757	43.4232	-7.193
4.59203	43.4194	-7.004
4.57986	43.4355	-5.454
4.573	43.4365	-7.106
4.56443	43.437	-7.118
4.55726	43.4348	-7.608
4.55113	43.4307	-9.322
4.55103	43.4243	-10.086
4.5416	43.4273	-10.72
4.53103	43.4328	-10.341
4.52072	43.4306	-11.332
4.5088	43.4292	-11.49
4.50013	43.4263	-11.839
4.49	43.4297	-11.64
4.47776	43.4336	-11.942
4.46912	43.432	-12.165
4.46485	43.4258	-12.905
4.46009	43.4325	-12.095
4.46618	43.4386	-10.681
4.47374	43.4386	-10.727
4.48748	43.4387	-10.36
4.49955	43.4338	-10.947
4.50556	43.4379	-9.902
4.51335	43.4366	-10.219
4.52334	43.4387	-9.715
4.53528	43.4406	-8.161
4.53778	43.4351	-9.576
4.54513	43.4349	-9.021
4.55585	43.4402	-5.833
4.5582	43.4454	-5
4.56982	43.4414	-5.729
4.54927	43.442	-6.064
4.54224	43.4415	-6.989
4.53916	43.4465	-7.301
4.526	43.4468	-7.027
4.51986	43.4437	-8.005
4.5127	43.4447	-7.524
4.49994	43.4424	-8.669
4.49264	43.4428	-9.352
4.4842	43.4437	-9.039
4.47709	43.444	-8.88
4.47222	43.448	-6.971
4.46522	43.4479	-6.812
4.45895	43.4446	-7.677
4.45536	43.4393	-9.851
4.4487	43.4347	-11.495
4.44023	43.4328	-11.889
4.42932	43.4348	-10.65
4.42326	43.4387	-9.505
4.41638	43.4416	-7.982
4.41084	43.4449	-7.31
4.40405	43.444	-7
4.39236	43.4434	-7
4.38469	43.442	-7
4.38003	43.4471	-7
4.37322	43.4447	-7
4.36672	43.4452	-7
4.36201	43.4488	-6.441
4.35511	43.4483	-5.823
4.34896	43.4508	-4.724
4.34292	43.4546	-3.35
4.33011	43.4554	-4.177
4.31731	43.4562	-5.847
4.30449	43.4571	-6
4.29169	43.4579	-6
4.27889	43.4588	-6.896
4.27738	43.453	-6.965
4.27068	43.4504	-7
4.26624	43.4548	-7
4.25915	43.4545	-7
4.24698	43.4575	-7.362
4.23913	43.4548	-8
4.23127	43.4529	-7.753
4.22636	43.4577	-7.163
4.21918	43.4552	-7.123
4.21293	43.4578	-5.735
4.20673	43.4551	-6.726
4.19923	43.4536	-8.253
4.19211	43.4538	-8.597
4.18413	43.4536	-9.615
4.17791	43.4496	-11.917
4.16333	43.4464	-18.628
4.15268	43.4414	-24.514
4.14851	43.4506	-19.073
4.16073	43.453	-13.87
4.17471	43.4566	-8.887
4.18224	43.4611	-7.537
4.18874	43.4587	-7.303
4.1947	43.4619	-6.636
4.20121	43.4591	-5.838
4.20783	43.4617	-5.14
4.21536	43.4646	-5.093
4.22042	43.4607	-6.166
4.22816	43.4637	-6.062
4.23369	43.4589	-7.716
4.24055	43.4612	-5.919
4.25341	43.4612	-4.225
4.26622	43.4604	-5.031
4.27215	43.4576	-7
4.20296	43.4671	-5.448
4.19057	43.4696	-7.297
4.18863	43.464	-7
4.1836	43.4674	-6.918
4.17664	43.4653	-6.365
4.16568	43.4587	-8.037
4.15461	43.458	-11.586
4.14306	43.4587	-15.159
4.13226	43.4582	-19.343
4.1362	43.4661	-12.077
4.14595	43.4661	-8.378
4.15567	43.4667	-6.32
4.16237	43.4641	-6.448
4.16915	43.4666	-5.306
4.17792	43.4713	-5.799
4.16589	43.4746	-5.093
4.16339	43.4693	-5.393
4.15831	43.4727	-6.003
4.15039	43.4715	-6.954
4.14295	43.474	-7
4.13264	43.4723	-9.248
4.12441	43.4744	-11.585
4.1154	43.4734	-15.434
4.10982	43.479	-14.522
4.09611	43.477	-18.996
4.07765	43.4698	-24.558
4.0655	43.4648	-26.443
4.04912	43.462	-27.562
4.03594	43.4538	-28.547
4.03078	43.4644	-27.267
4.0165	43.4661	-27.062
4.00607	43.4546	-27.728
3.99155	43.4661	-26.062
3.9776	43.4669	-25.972
3.96655	43.4601	-26.773
3.95591	43.4678	-25.709
3.94201	43.4708	-24.508
3.92994	43.4603	-24.763
3.92256	43.4672	-23.591
3.90926	43.4583	-23.122
3.89733	43.4568	-22.039
3.88611	43.4603	-19.186
3.86953	43.4549	-17.501
3.86254	43.4489	-17.275
3.85272	43.4421	-17.234
3.838	43.4445	-10.242
3.82972	43.4448	-7.133
3.82501	43.4401	-6.188
3.82114	43.4453	-6
3.81277	43.4437	-6
3.80286	43.4441	-5.703
3.81097	43.4514	-5.834
3.81584	43.4481	-6
3.82418	43.4516	-5.816
3.83148	43.4505	-7.494
3.84329	43.4496	-12.689
3.85305	43.4517	-14.959
3.8586	43.4602	-14.589
3.86934	43.4631	-15.166
3.87261	43.4708	-13.733
3.88891	43.4678	-18.058
3.89741	43.4718	-18.144
3.9121	43.4707	-20.943
3.92531	43.4759	-21.721
3.93897	43.4842	-21.053
3.95641	43.4792	-23.999
3.96706	43.4722	-25.342
3.97712	43.478	-24.645
3.98934	43.4759	-24.894
4.00403	43.4728	-25.267
4.025	43.476	-24.884
4.03969	43.4734	-25.377
4.05547	43.47	-25.538
4.06138	43.4783	-23.196
4.07875	43.4806	-21.093
4.08869	43.4865	-17.207
4.10113	43.4873	-14.18
4.11063	43.4866	-11.395
4.12017	43.4864	-9.888
4.12563	43.4811	-8.799
4.13385	43.4791	-7.491
4.14046	43.4788	-7.46
4.15388	43.4779	-6.534
4.14355	43.4835	-7.694
4.13655	43.4843	-7.026
4.12877	43.4857	-5.512
4.12594	43.4905	-8.862
4.13355	43.4893	-0.00
4.12539	43.4966	-8.895
4.11759	43.4931	-9.77
4.10932	43.4958	-9.894
4.10114	43.494	-12.45
4.09296	43.4958	-14.194
4.08241	43.498	-15.589
4.0771	43.4905	-18.036
4.06489	43.4896	-19.7
4.05268	43.4904	-20.973
4.04966	43.4783	-24.205
4.04088	43.4845	-22.864
4.03054	43.4919	-21.968
4.0151	43.4849	-23.81
3.99739	43.4834	-23.987
3.98496	43.486	-23.678
3.96711	43.4823	-24.126
3.96465	43.4911	-22.585
3.94995	43.4866	-21.817
3.94842	43.4955	-18.691
3.95635	43.5023	-18.075
3.9677	43.5046	-17.7
3.98084	43.4957	-22.522
3.99415	43.4938	-22.741
4.00548	43.4899	-23.207
4.02089	43.4965	-21.83
4.03136	43.5008	-20.039
4.04194	43.4942	-21.348
4.04836	43.5021	-18.704
4.05948	43.4983	-18.262
4.07149	43.4994	-16.567
4.07874	43.5061	-14.816
4.08979	43.5048	-13.299
4.10115	43.5022	-11.318
4.1092	43.5022	-8.742
4.11849	43.4991	-8.997
4.12289	43.5057	-7.629
4.11571	43.5047	-7.976
4.10953	43.5085	-7.857
4.10173	43.5084	-10.382
4.09613	43.5127	-11.464
4.08222	43.5145	-13.389
4.06775	43.5089	-15.801
4.05633	43.5131	-16.426
4.04517	43.5139	-16.912
4.03583	43.509	-18.62
4.02171	43.5054	-20.091
4.00986	43.4984	-22.011
3.99713	43.5042	-20.636
3.98357	43.5088	-17.683
3.97661	43.5135	-13.44
3.96747	43.5142	-12.354
3.95364	43.5126	-11.904
3.94521	43.5052	-14.317
3.93882	43.4987	-15.786
3.93054	43.4937	-15.922
3.9277	43.4851	-18.702
3.91723	43.4817	-18.668
3.90634	43.4814	-16.449
3.89143	43.4833	-13.971
3.88215	43.4735	-15.069
3.87681	43.4796	-11.764
3.86772	43.4778	-10.783
3.8619	43.4692	-12.809
3.85149	43.4672	-11.099
3.84745	43.4584	-12.074
3.83974	43.4585	-9.286
3.83251	43.4563	-7.042
3.82564	43.457	-5.318
3.81752	43.4533	-5.637
3.81906	43.4586	-5.036
3.82663	43.4662	-5.942
3.83182	43.4621	-6.522
3.83846	43.4645	-7.748
3.84447	43.4727	-8.122
3.83316	43.4681	-6.24
3.83468	43.4735	-7.139
3.84329	43.4804	-7
3.84883	43.477	-7
3.85575	43.4762	-9.072
3.85609	43.4817	-7.579
3.85285	43.4866	-6.604
3.86228	43.4843	-7.283
3.86878	43.4877	-7.458
3.87653	43.4871	-9.022
3.88502	43.4877	-10.83
3.89217	43.4913	-11.214
3.90561	43.4896	-14.173
3.91646	43.4903	-15.48
3.92212	43.4955	-14.274
3.93006	43.5054	-11.022
3.93769	43.5077	-11.348
3.93939	43.514	-9.405
3.94692	43.5158	-9.933
3.95559	43.5189	-9.455
3.96106	43.5238	-8.608
3.96922	43.5238	-9.449
3.97645	43.5208	-10.677
3.98588	43.5199	-11.53
3.99276	43.511	-17.2
4.00887	43.5113	-18.577
4.0156	43.5166	-17.751
4.02511	43.5172	-17.815
4.03563	43.5174	-17.547
4.04863	43.5223	-15.486
4.05814	43.5207	-15.06
4.06883	43.5188	-14.48
4.07985	43.5251	-12.403
4.09188	43.5221	-11.325
4.09978	43.5211	-10.494
4.10746	43.5193	-9.105
4.11065	43.5142	-8.147
4.1173	43.5104	-6.924
4.12286	43.515	-6.256
4.11566	43.5183	-7.241
4.10958	43.5248	-8.7
4.11655	43.5261	-7.027
4.12378	43.5197	-5.928
4.12705	43.5239	-5
4.12503	43.5295	-5.544
4.13149	43.5266	-5.195
4.13272	43.5316	-5.795
4.13884	43.5276	-3.017
4.13663	43.5252	-3.813
4.139	43.5328	-3.209
4.13475	43.5365	-4.946
4.12673	43.5387	-6.387
4.12044	43.5342	-6.547
4.11088	43.5325	-8.39
4.10294	43.5269	-9.648
4.09219	43.5308	-10.303
4.08294	43.5356	-10.459
4.07449	43.5316	-12.265
4.06904	43.526	-13.6
4.06047	43.5282	-13.365
4.04501	43.5314	-13.465
4.03535	43.5257	-15.651
4.02841	43.5298	-13.111
4.01979	43.5302	-11.892
4.01283	43.5239	-12.308
4.00514	43.5188	-14.319
3.99517	43.5184	-12.819
3.99105	43.5262	-9.069
4.00351	43.5266	-10
4.00973	43.5328	-10.204
4.01952	43.5385	-9.376
4.02689	43.5402	-9.352
4.03229	43.5359	-10.955
4.04032	43.5366	-11.665
4.05469	43.5371	-11.215
4.06518	43.5352	-11.321
4.0738	43.5394	-9.823
4.08138	43.542	-8.915
4.09321	43.5405	-9.088
4.10172	43.5352	-9.338
4.10562	43.5406	-7.593
4.11467	43.5368	-7.48
4.12124	43.5439	-6.44
4.12956	43.545	-5.103
4.11904	43.5504	-4.86
4.11336	43.5473	-6.033
4.1132	43.5419	-6.969
4.10656	43.5467	-6.188
4.09941	43.5429	-7.612
4.09785	43.5483	-5.884
4.08644	43.5472	-7.006
4.08075	43.5496	-6.459
4.07488	43.5475	-7.614
4.06467	43.5432	-8.817
4.05225	43.5434	-8.786
4.04393	43.5423	-9.575
4.03691	43.5452	-8.588
4.02908	43.546	-7.456
4.02296	43.5489	-6.401
4.01656	43.5464	-7.282
4.01294	43.5413	-9.045
4.0055	43.5414	-9.034
3.99806	43.5332	-10
3.9903	43.5346	-9.522
3.98313	43.5319	-9.172
3.97783	43.5271	-9.749
3.97075	43.5302	-8.362
3.95754	43.5301	-6.85
3.95414	43.5251	-7.981
3.94828	43.522	-8.317
3.94154	43.5235	-6.545
3.93535	43.5209	-7.485
3.93223	43.5156	-9.001
3.92502	43.5142	-8.304
3.92202	43.5081	-9.094
3.91932	43.502	-11.59
3.90956	43.4972	-12.172
3.89862	43.4956	-11.246
3.88655	43.4996	-6.33
3.88473	43.4945	-8.164
3.87715	43.4932	-6.787
3.87016	43.4931	-6.125
3.8633	43.4921	-5.9
3.87289	43.4983	-5.406
3.87982	43.4983	-5.402
3.8829	43.5042	-5
3.89263	43.502	-8.23
3.89761	43.5059	-8.579
3.90449	43.505	-9.21
3.91218	43.5044	-9.893
3.91428	43.5102	-7.799
3.90701	43.5104	-7.629
3.90346	43.5154	-6.738
3.89293	43.51	-7.391
3.91053	43.5152	-6.083
3.91816	43.5148	-5.92
3.92208	43.5193	-6.85
3.9265	43.5237	-7.28
3.9378	43.5282	-5.618
3.94467	43.5283	-6.419
3.94936	43.5323	-7.047
3.96094	43.5364	-6.313
3.96826	43.5357	-6.976
3.98034	43.5381	-7.29
3.98459	43.5437	-6.208
3.99368	43.5404	-8.558
4.00319	43.5469	-8.427
4.00809	43.5513	-7.579
3.99598	43.5481	-8.518
4.02035	43.5541	-5.506
4.02715	43.5532	-6.637
4.03368	43.5505	-7.992
4.04097	43.5505	-7.991
4.05177	43.5501	-8
4.05858	43.547	-8.359
4.06465	43.5518	-8
4.0715	43.5522	-6.783
4.07794	43.5542	-5.647
4.08832	43.5534	-5.579
4.09428	43.5522	-5.076
4.10067	43.5528	-4.439
4.10702	43.5537	-4.212
4.09498	43.5571	-3.664
4.08444	43.559	-4.696
4.07108	43.5587	-5
4.0582	43.5587	-7.865
4.05776	43.5531	-8
4.04532	43.5587	-7.869
4.0329	43.5562	-7.895
3.97257	43.5404	-7.014
3.91496	43.5196	-5
4.35572	43.4537	-4.214
4.36858	43.4535	-4.908
4.37424	43.4502	-6.864
4.38141	43.4529	-5.267
4.38733	43.4482	-7
4.3956	43.4491	-7
4.40015	43.4493	-7
4.40742	43.4496	-7
4.42023	43.4504	-7.714
4.42782	43.4437	-9.094
4.43614	43.4385	-10.038
4.44469	43.4409	-9.261
4.45239	43.4476	-6.165
4.45853	43.45	-5.026
4.46465	43.4535	-4.189
4.47082	43.4562	-3.01
4.47778	43.4513	-5.356
4.48451	43.4518	-5.146
4.48903	43.4478	-7.052
4.49452	43.4515	-5.481
4.50156	43.4502	-5
4.50846	43.4492	-5.397
4.51511	43.451	-5
4.52108	43.4497	-5.622
4.52194	43.4546	-5.085
4.53432	43.452	-6.514
4.54672	43.4496	-5.841
4.50914	43.4554	-5
4.49648	43.4571	-4.615
4.48964	43.455	-4.168
4.48362	43.4571	-2.605
4.45801	43.4554	-3.054
4.45182	43.453	-3.917
4.44537	43.4466	-6.653
4.43698	43.4451	-7.922
4.42692	43.4491	-7.969
4.43295	43.4517	-5.168
4.4401	43.4504	-5.016
4.4452	43.4546	-3.359
3.70102	43.3995	-7.1
4.74025	43.3529	-5.916
4.75304	43.3521	-7.997
4.76427	43.346	-11.712
4.77114	43.343	-12.536
4.78307	43.3425	-12.32
4.79344	43.3387	-12.787
4.80598	43.3385	-11.282
4.81509	43.3308	-13.718
4.82585	43.3371	-13.185
4.81499	43.342	-8.471
4.80353	43.3462	-10.482
4.79107	43.3485	-10.19
4.77852	43.3504	-4.85
4.77167	43.3487	-9.086
4.76588	43.352	-9.557
4.85447	43.3297	-18.86
4.86074	43.3378	-12.097
4.8704	43.338	-14.448
4.88134	43.3429	-15.9
4.88818	43.3363	-19.162
4.89787	43.3407	-21.488
4.90999	43.3416	-26.595
4.91596	43.3333	-28.851
4.93063	43.3374	-38.66
4.94212	43.3537	-33.437
4.96127	43.3493	-39.862
4.9765	43.354	-35.952
4.98622	43.361	-28.346
4.9975	43.3664	-16.152
5.00399	43.3637	-9.892
5.01135	43.3617	-0.00
5.01427	43.36	-0.00
5.01796	43.3599	-0.00
5.00989	43.3672	-0.00
5.00011	43.3718	-7.944
4.98681	43.3714	-20.478
4.97266	43.3665	-28.354
4.96093	43.3604	-32.063
4.95063	43.368	-27.442
4.93958	43.3634	-26.828
4.92284	43.3586	-21.083
4.9234	43.3483	-26.852
4.91415	43.3526	-20.249
4.90392	43.35	-15.822
4.88991	43.3491	-11.595
4.88412	43.3526	-7.926
4.87682	43.3523	-6.073
4.86814	43.3454	-11.046
4.88706	43.3579	-6.1
4.89715	43.3562	-9.753
4.9095	43.3602	-14.016
4.91664	43.3677	-14.86
4.9042	43.3648	-9.192
4.89639	43.3643	-5.828
4.90546	43.3709	-8.768
4.9176	43.3825	-14.448
4.92691	43.377	-18.687
4.92852	43.368	-19.803
4.93893	43.3731	-22.808
4.95309	43.3796	-23.275
4.96965	43.3785	-23.438
4.97981	43.3774	-20.131
4.98807	43.3822	-12.282
4.99514	43.3761	-9.602
5.00532	43.3759	-0.00
4.99836	43.3837	-0.00
4.98918	43.3874	-6.494
4.97952	43.387	-15.087
4.96458	43.387	-21.24
4.95555	43.3931	-18.993
4.94672	43.3884	-19.79
4.93881	43.3828	-20.725
4.92813	43.3861	-17.741
4.91528	43.3918	-12.668
4.91254	43.385	-11.818
4.90752	43.3905	-10.466
4.90241	43.3857	-7.434
4.90938	43.3798	-10.503
4.90163	43.3796	-6.781
4.90027	43.3732	-6.13
4.89541	43.3759	-5.108
4.89072	43.3731	-3.766
4.89274	43.3657	-3.869
4.88648	43.3685	-3.215
4.88001	43.3645	-3.527
4.88067	43.3718	-3.296
4.87567	43.3731	-3.087
4.86959	43.3699	-3
4.87055	43.3741	-3
4.86577	43.376	-3.018
4.85772	43.3735	-3.074
4.8606	43.377	-3
4.85491	43.3787	-3.035
4.84923	43.3805	-3.092
4.85367	43.3829	-3.015
4.86014	43.3812	-3
4.86564	43.3805	-3.532
4.87429	43.3771	-3.257
4.87891	43.3799	-4.055
4.88442	43.3785	-4.423
4.88534	43.3742	-3.902
4.88962	43.3773	-4.299
4.8935	43.3803	-5.709
4.89324	43.3891	-7.394
4.88709	43.3847	-5.788
4.87881	43.3844	-4.723
4.86982	43.3834	-4.008
4.86367	43.3844	-3.771
4.85589	43.3867	-3.406
4.85289	43.3946	-3.346
4.85915	43.3926	-4.098
4.86365	43.3887	-4.28
4.87164	43.3896	-5.105
4.87708	43.3921	-6.303
4.88266	43.3898	-6.472
4.88484	43.3957	-7.668
4.879	43.3986	-6.96
4.87302	43.3959	-5.763
4.86531	43.3947	-4.838
4.85891	43.3983	-4.069
4.85539	43.4037	-0.00
4.86029	43.4023	-3.844
4.86542	43.4015	-4.591
4.8736	43.4019	-5.665
4.88047	43.4044	-7.314
4.88879	43.402	-9.309
4.89617	43.3981	-10.089
4.89997	43.3926	-9.21
4.90864	43.3967	-11.073
4.91726	43.4004	-12.099
4.92368	43.3945	-14.997
4.93171	43.3976	-15.381
4.93992	43.3948	-16.857
4.9513	43.4	-14.851
4.96386	43.4014	-11.654
4.97193	43.3944	-14.214
4.9848	43.3915	-8.165
4.99255	43.3921	-0.00
4.98489	43.3977	-2.606
4.97749	43.3983	-7.594
4.97446	43.4037	-0.00
4.96869	43.4039	-7.229
4.96415	43.4101	-6.367
4.95755	43.4059	-11.27
4.94544	43.4061	-12.603
4.93879	43.4017	-14.395
4.9309	43.4046	-13.335
4.92431	43.41	-11.328
4.91524	43.4079	-11.048
4.90871	43.4035	-11.045
4.90103	43.4066	-11
4.89295	43.4076	-11.846
4.8789	43.4097	-6.374
4.87002	43.4072	-4.804
4.86495	43.4058	-3.933
4.86198	43.4093	-2.859
4.87364	43.4132	-3.68
4.88164	43.4147	-5.257
4.88972	43.4135	-7.965
4.9025	43.4122	-9.602
4.90942	43.414	-8.945
4.91876	43.416	-8.489
4.9248	43.4184	-8.359
4.93117	43.4166	-9.008
4.93898	43.412	-10.258
4.95355	43.4118	-9.329
4.95971	43.4143	-6.49
4.96648	43.4152	-2.791
4.97065	43.4082	-0.00
4.97727	43.4098	-0.00
4.97208	43.4184	-0.00
4.96471	43.42	-2
4.9584	43.4196	-4.542
4.95242	43.4171	-7.217
4.94566	43.4176	-7.651
4.93808	43.4174	-8.154
4.93423	43.4248	-5.982
4.92362	43.4236	-6.328
4.9175	43.4259	-4.88
4.91207	43.4227	-5.825
4.90107	43.4179	-6.689
4.91718	43.4313	-3.556
4.92406	43.4294	-4.494
4.92989	43.4281	-5.05
4.93932	43.4266	-4.139
4.94114	43.4224	-6
4.94808	43.4247	-4.371
4.95483	43.4242	-3.227
4.96157	43.4243	-2
4.9661	43.4235	-2
4.97351	43.4226	-0.00
4.9674	43.427	-0.00
4.95502	43.4296	-2
4.94222	43.4304	-0.00
4.92984	43.4329	-3.58
4.88345	43.4211	-3.364
5.05623	43.3296	-5.331
5.064	43.3276	-10.871
5.07264	43.3286	-6.384
5.07991	43.3296	-5.667
5.09561	43.3266	-36.923
5.10372	43.3312	-5.953
5.09137	43.3338	-0.00
5.06806	43.3332	-0.00
5.14193	43.3293	-0.00
5.15475	43.3289	-16.809
5.16756	43.3296	-15.658
5.17953	43.3329	-27.29
5.21779	43.3318	-60.538
5.2306	43.3312	-60.642
5.24297	43.3337	-53.194
5.26874	43.3255	-65.34
5.29069	43.3413	-49.853
5.30949	43.3398	-52.03
5.32035	43.3448	-50
5.33427	43.3428	-41.804
5.34142	43.3339	-45.269
5.32972	43.3515	-9.004
5.32016	43.3577	-0.00
5.31002	43.3505	-46.855
5.29493	43.3504	-48.006
5.28441	43.3554	-8.064
5.27471	43.3493	-46.034
5.26516	43.3431	-26.389
5.25377	43.3387	-49.095
5.2955	43.3601	-0.00
5.30264	43.3552	-20.06
5.30825	43.3612	-0.00
5.30705	43.2746	-0.00
5.42988	43.2097	-42.113
5.86388	43.0602	-0.00
5.87197	43.0674	-13.455
5.8822	43.0654	-28.307
5.8927	43.0661	-24.519
5.90415	43.0736	-12.628
5.89278	43.0779	-10
5.88134	43.0737	-10.753
5.95957	43.0851	-44.661
5.94638	43.0812	-35.741
5.94366	43.0884	-28.845
5.93496	43.0854	-14.96
5.93072	43.0961	-12.15
5.92484	43.0886	-7.625
5.92455	43.08	-8.996
5.91454	43.0858	-6.661
5.9141	43.091	-5.473
5.90795	43.0888	-6.466
5.90502	43.0796	-9.942
5.90036	43.0883	-9.05
5.90958	43.0947	-5.781
5.91445	43.0981	-5.901
5.91898	43.0944	-6.165
5.92605	43.1007	-7.787
5.91881	43.1019	-6.514
5.91276	43.1041	-5.63
5.9061	43.1037	-5
5.91036	43.109	-4.996
5.90015	43.108	-4.885
5.89337	43.1046	-0.00
5.89551	43.1094	-0.00
5.89242	43.1076	-0.00
5.88293	43.11	-0.00
5.89063	43.1103	-0.00
5.89342	43.1129	-0.00
5.89775	43.113	-3.249
5.90451	43.1133	-3.073
5.91067	43.1158	-2.396
5.91658	43.1129	-3.799
5.91683	43.1079	-6.038
5.92314	43.1081	-6.059
5.93115	43.1049	-5.54
5.94012	43.1008	-22.66
5.94766	43.0952	-36.067
5.96841	43.0937	-41.304
5.98217	43.0944	-40.036
6.00008	43.0918	-32.502
6.01591	43.0845	-37.144
6.0267	43.0795	-36
6.03926	43.0812	-34.577
6.05203	43.0816	-31.756
6.06371	43.0854	-15.799
6.0732	43.0809	-24.863
6.08373	43.08	-20.952
6.09245	43.0817	-20
6.10597	43.0754	-20
6.11652	43.0732	-2.973
6.12272	43.0749	-2.006
6.12706	43.071	-2.217
6.1237	43.08	-0.00
6.12173	43.0776	-0.00
6.11813	43.0775	-0.00
6.11268	43.0787	-2.622
6.10585	43.0814	-11.519
6.1001	43.0854	-0.00
6.11287	43.085	-0.00
6.11043	43.0819	-0.00
6.08773	43.0877	-0.00
6.08073	43.0854	-14.092
6.07519	43.0895	-0.00
6.01338	43.0913	-0.00
6.02208	43.0927	-0.00
6.01483	43.1004	-0.00
6.00723	43.0963	-7.489
5.99897	43.0995	-12.275
5.9842	43.1012	-13.612
5.97511	43.1	-18.127
5.96708	43.1046	-0.00
5.9586	43.1019	-34.505
5.9495	43.1027	-26.522
5.94281	43.1087	-0.00
5.9556	43.1087	-0.00
5.97941	43.1071	-0.00
5.9918	43.1047	-0.00
6.00449	43.1059	-0.00
6.00832	43.1016	-0.00
5.92647	43.1107	-2.078
5.92857	43.114	-0.00
5.92592	43.113	-0.00
5.92266	43.1129	-2.751
5.91946	43.1156	-0.00
5.92506	43.1152	-0.00
5.92295	43.1178	-0.00
5.91683	43.1184	-0.00
5.91281	43.1185	-0.00
5.91091	43.1213	-0.00
5.92357	43.1226	-0.00
5.89239	43.1162	-2.044
6.1099	43.0361	-31.749
6.15856	43.0298	-20.836
6.16726	43.0187	-19.311
6.17655	43.0266	-12.582
6.18528	43.0245	-12.467
6.18821	43.0177	-13.756
6.20041	43.0194	-16.428
6.20138	43.0274	-17.895
6.19184	43.03	-15.255
6.18307	43.0315	-12.095
6.16825	43.0307	-16.469
6.16488	43.0379	-16.902
6.17981	43.0381	-14.461
6.18941	43.0373	-16.693
6.19779	43.0411	-18.607
6.20608	43.0353	-21.19
6.21687	43.0374	-24.509
6.22166	43.0297	-23.724
6.21997	43.047	-25.546
6.23538	43.0476	-31.025
6.24362	43.059	-30.302
6.22287	43.0567	-24.625
6.20802	43.0502	-20.87
6.19935	43.0553	-17.843
6.18968	43.0514	-16
6.18226	43.0459	-16.36
6.17217	43.0451	-14.909
6.1595	43.0452	-14.317
6.15221	43.039	-15.672
6.14956	43.0482	-8.226
6.15773	43.0533	-11.782
6.16888	43.0539	-13.266
6.18017	43.0572	-14.131
6.19121	43.0602	-15.432
6.20136	43.0637	-17.678
6.2115	43.059	-20.675
6.22092	43.0655	-21.807
6.23169	43.0682	-25.041
6.24691	43.0724	-27.574
6.25903	43.064	-32.81
6.27881	43.0673	-36.756
6.2888	43.0754	-37.261
6.30161	43.0704	-40.746
6.31489	43.0656	-43.126
6.32933	43.0673	-44.252
6.34691	43.0766	-43.663
6.36403	43.0799	-38.961
6.37988	43.0738	-65.102
6.37908	43.0884	-55.919
6.36492	43.0979	-23.544
6.35496	43.0921	-2.666
6.34784	43.0853	-27.893
6.34144	43.0875	-17.179
6.33196	43.082	-35.165
6.31582	43.0788	-40.102
6.30076	43.0844	-38.077
6.28245	43.0856	-33.935
6.26608	43.079	-29.424
6.24702	43.0851	-24.643
6.23482	43.0792	-24.356
6.21923	43.0817	-17.845
6.21486	43.0731	-18.799
6.2045	43.0717	-16.88
6.19353	43.0681	-14.495
6.18425	43.0662	-13.166
6.17585	43.0688	-12.487
6.16735	43.0607	-13.082
6.15868	43.0616	-12.042
6.14872	43.0575	-6.152
6.14956	43.0668	-5.947
6.15412	43.0706	-5.757
6.16044	43.0723	-8.222
6.16695	43.0676	-12.768
6.17033	43.0744	-11.133
6.16298	43.0789	-8.297
6.15681	43.0797	-3.978
6.15292	43.0758	-0.00
6.15539	43.085	-2.173
6.161	43.0833	-6.273
6.16587	43.0861	-7.309
6.17331	43.0814	-9.472
6.18183	43.076	-10.76
6.19526	43.0756	-13.788
6.204	43.0797	-15.402
6.20921	43.0865	-16
6.20009	43.087	-14.022
6.1927	43.0828	-12.315
6.18356	43.0845	-10.054
6.17322	43.0873	-9
6.17015	43.0944	-5.929
6.16201	43.0929	-3.926
6.16878	43.1009	-3.482
6.17328	43.0981	-5.13
6.1779	43.0919	-9.179
6.19187	43.0902	-12.048
6.19823	43.0977	-11.388
6.20691	43.0941	-15.026
6.22043	43.0976	-13.875
6.22695	43.0887	-22.467
6.24518	43.0941	-21.161
6.26125	43.0936	-24.496
6.26918	43.0989	-20.659
6.27939	43.1004	-21.161
6.29365	43.0971	-19.891
6.30312	43.0928	-22.732
6.31397	43.0918	-29.368
6.324	43.0877	-25.443
6.3298	43.0906	-7.341
6.33473	43.0888	-9.691
6.34224	43.0929	-0.00
6.32974	43.0949	-0.00
6.32802	43.0927	-0.00
6.32484	43.0923	-9.359
6.32108	43.0959	-7.266
6.32548	43.0957	-0.00
6.3227	43.1027	-0.00
6.32335	43.0973	-0.00
6.32179	43.0993	-0.00
6.31749	43.0999	-0.00
6.31132	43.1007	-5.686
6.30203	43.1003	-10.814
6.29441	43.1045	-9.5
6.28165	43.1068	-14.89
6.26699	43.1069	-13.253
6.25782	43.1039	-13.985
6.24798	43.103	-14.61
6.23485	43.0982	-16.906
6.22773	43.1044	-9.427
6.23788	43.1067	-14.339
6.24946	43.1108	-12.965
6.26161	43.1112	-9.597
6.26963	43.1116	-9.978
6.27607	43.1119	-9.338
6.28274	43.1133	-0.00
6.2886	43.1104	-3.738
6.30133	43.1096	-0.00
6.30036	43.1049	-6.091
6.30632	43.1052	-5.251
6.31097	43.1066	-0.00
6.31531	43.1046	-0.00
6.31471	43.1018	-2.882
6.31412	43.1096	-0.00
6.2829	43.1188	-0.00
6.27514	43.118	-3.587
6.27001	43.1189	-2.2
6.26629	43.1159	-5.605
6.2616	43.1184	-0.00
6.25692	43.1159	-6.108
6.24816	43.1185	-6.843
6.24335	43.1141	-20.333
6.23612	43.1154	-5.448
6.22927	43.1112	-7.245
6.2239	43.108	-4.965
6.21801	43.1077	-3.119
6.20855	43.1017	-13.066
6.20241	43.1056	-7.289
6.19283	43.1054	-5.889
6.18727	43.1004	-7.731
6.18253	43.0962	-8.068
6.17802	43.1006	-4.747
6.18	43.1044	-3.288
6.18467	43.1062	-4.336
6.18915	43.1112	-0.00
6.17721	43.1079	-0.00
6.19785	43.1106	-3.939
6.20659	43.1108	-4.622
6.21123	43.1068	-6.695
6.21402	43.1132	-2
6.20766	43.1154	-2.529
6.20211	43.1137	-3.061
6.19867	43.1175	-0.00
6.21125	43.1192	-2
6.22338	43.1162	-0.00
6.21999	43.1122	-0.00
6.22479	43.1126	-2.812
6.25708	43.1197	-0.00
6.25932	43.1231	-0.00
6.26586	43.1214	-0.00
6.27208	43.1237	-0.00
6.27316	43.1207	-0.00
6.3835	43.1048	-38.548
6.38888	43.1204	-37.529
6.37434	43.1111	-33.66
6.36323	43.1072	-15.118
6.36073	43.1163	-6.724
6.37426	43.1207	-34.569
6.38543	43.1271	-33.256
6.37733	43.1305	-35.761
6.36104	43.1257	-6.787
6.36564	43.1344	-5.785
6.37542	43.1404	-0.00
6.38425	43.1392	-13.53
6.3896	43.1335	-40.321
6.41718	43.1379	-147.551
6.43931	43.1381	-117.533
6.4628	43.1445	-82.296
6.48697	43.1384	-97.512
6.50947	43.1408	-105.211
6.53122	43.1395	-276.409
6.57835	43.1592	-325.566
6.54807	43.1563	-59.065
6.5284	43.1671	-42.949
6.51645	43.1637	-45.026
6.50643	43.1579	-35.146
6.49499	43.1537	-0.00
6.48225	43.1546	-6.182
6.46993	43.1571	-0.00
6.45718	43.1579	-0.00
6.4478	43.1516	-0.00
6.43511	43.1528	-0.00
6.42231	43.1527	-0.00
6.40955	43.1521	-0.00
6.39786	43.1483	-10.257
6.39299	43.1419	-51.112
6.38537	43.1463	-0.00
6.53781	43.1734	-11.778
6.54935	43.1772	-20.132
6.56037	43.1725	-45.364
6.58088	43.1743	-69.232
6.59184	43.1775	-18.183
6.60942	43.1679	-0.00
6.62204	43.1664	-36.76
6.63902	43.1603	-115.897
6.67188	43.1619	-195.86
6.69449	43.1809	-63.406
6.66659	43.1795	-71.249
6.65387	43.1801	-40.135
6.64316	43.1747	-9.404
6.63048	43.1734	-6.838
