-2.25999999046 34.25 2821
-2 33.9000015259 2822
-1.72000002861 33.5499992371 2823
-1.44000005722 33.2200012207 2824
-1.13999998569 32.8899993896 2825
-0.839999973774 32.5600013733 2826
-0.519999980927 32.25 2827
-0.189999997616 31.9400005341 2828
0.140000000596 31.6399993896 2829
0.490000009537 31.3500003815 2830
0.839999973774 31.0699996948 2831
1.20000004768 30.7999992371 2832
1.57000005245 30.5400009155 2833
1.94000005722 30.2800006866 2834
2.32999992371 30.0400009155 2835
2.72000002861 29.7999992371 2836
3.1099998951 29.5699996948 2837
3.51999998093 29.3600006104 2838
3.93000006676 29.1499996185 2839
4.34000015259 28.9599990845 2840
4.76000022888 28.7700004578 2841
5.19000005722 28.5900001526 2842
5.61999988556 28.4300003052 2843
6.05999994278 28.2800006866 2844
6.5 28.1299991608 2845
6.94000005722 28 2846
7.38999986649 27.8799991608 2847
7.82999992371 27.7700004578 2848
8.28999996185 27.6800003052 2849
8.73999977112 27.5900001526 2850
9.19999980927 27.5100002289 2851
9.65999984741 27.4500007629 2852
10.1199998856 27.3999996185 2853
10.5799999237 27.3600006104 2854
11.0500001907 27.3299999237 2855
11.5100002289 27.3099994659 2856
11.970000267 27.2999992371 2857
12.4399995804 27.3099994659 2858
12.8999996185 27.3299999237 2859
13.3699998856 27.3600006104 2860
13.8299999237 27.3999996185 2861
14.2899999619 27.4500007629 2862
14.75 27.5100002289 2863
15.2100000381 27.5900001526 2864
15.6599998474 27.6800003052 2865
16.1100006104 27.7700004578 2866
16.5599994659 27.8799991608 2867
17.0100002289 28 2868
17.4500007629 28.1299991608 2869
17.8899993896 28.2800006866 2870
18.3299999237 28.4300003052 2871
18.7600002289 28.5900001526 2872
19.1900005341 28.7700004578 2873
19.6100006104 28.9599990845 2874
20.0200004578 29.1499996185 2875
20.4300003052 29.3600006104 2876
20.8299999237 29.5699996948 2877
21.2299995422 29.7999992371 2878
21.6200008392 30.0400009155 2879
22.0100002289 30.2800006866 2880
22.3799991608 30.5400009155 2881
22.75 30.7999992371 2882
23.1100006104 31.0699996948 2883
23.4599990845 31.3500003815 2884
23.8099994659 31.6399993896 2885
24.1399993896 31.9400005341 2886
24.4699993134 32.25 2887
24.7800006866 32.5600013733 2888
25.0900001526 32.8899993896 2889
25.3899993896 33.2200012207 2890
25.6700000763 33.5499992371 2891
25.9500007629 33.9000015259 2892
26.2099990845 34.25 2893
26.4599990845 34.5999984741 2894
26.7000007629 34.9599990845 2895
26.9300003052 35.3300018311 2896
27.1499996185 35.7099990845 2897
27.3500003815 36.0800018311 2898
27.5400009155 36.4700012207 2899
27.7199993134 36.8499984741 2900
27.8799991608 37.25 2901
28.0300006866 37.6399993896 2902
28.1599998474 38.0400009155 2903
28.2800006866 38.4399986267 2904
28.3899993896 38.8499984741 2905
28.4699993134 39.25 2906
28.5499992371 39.6599998474 2907
28.6000003815 40.0699996948 2908
28.6399993896 40.4799995422 2909
28.6700000763 40.9000015259 2910
28.6700000763 41.3100013733 2911
28.6599998474 41.7200012207 2912
28.6299991608 42.1300010681 2913
28.5799999237 42.5400009155 2914
28.5200004578 42.9500007629 2915
28.4300003052 43.3600006104 2916
28.3299999237 43.7700004578 2917
28.2000007629 44.1699981689 2918
28.0599994659 44.5699996948 2919
27.8899993896 44.9700012207 2920
27.7099990845 45.3600006104 2921
27.5100002289 45.7400016785 2922
27.2800006866 46.1300010681 2923
27.0400009155 46.5 2924
26.7700004578 46.8699989319 2925
26.4799995422 47.2400016785 2926
26.1700000763 47.5900001526 2927
25.8500003815 47.9399986267 2928
25.5 48.2799987793 2929
25.1299991608 48.6100006104 2930
24.7299995422 48.9300003052 2931
24.3199996948 49.25 2932
23.8899993896 49.5499992371 2933
23.4400005341 49.8400001526 2934
22.9699993134 50.1199989319 2935
22.4799995422 50.3899993896 2936
21.9699993134 50.6399993896 2937
21.4400005341 50.8800010681 2938
20.8899993896 51.1100006104 2939
20.3299999237 51.3300018311 2940
19.75 51.5299987793 2941
19.1599998474 51.7200012207 2942
18.5599994659 51.8899993896 2943
17.9400005341 52.0499992371 2944
17.3099994659 52.1899986267 2945
16.6599998474 52.3100013733 2946
16.0100002289 52.4199981689 2947
15.3500003815 52.5200004578 2948
14.6800003052 52.5900001526 2949
14.0100002289 52.6500015259 2950
13.3400001526 52.6899986267 2951
12.6599998474 52.7200012207 2952
11.970000267 53.2099990845 2953
11.2600002289 53.2000007629 2954
10.5500001907 53.1699981689 2955
9.84000015259 53.1300010681 2956
9.13000011444 53.0600013733 2957
8.43999958038 52.9799995422 2958
7.73999977112 52.8899993896 2959
7.05999994278 52.7700004578 2960
6.38999986649 52.6399993896 2961
5.73000001907 52.4900016785 2962
5.07999992371 52.3300018311 2963
4.44999980927 52.1500015259 2964
3.82999992371 51.9500007629 2965
3.23000001907 51.7400016785 2966
2.6400001049 51.5200004578 2967
2.06999993324 51.2799987793 2968
1.51999998093 51.0200004578 2969
0.990000009537 50.75 2970
0.479999989271 50.4700012207 2971
0 50.1800003052 2972
-0.469999998808 49.8800010681 2973
-0.920000016689 49.5600013733 2974
-1.35000002384 49.2400016785 2975
-1.75 48.9000015259 2976
-2.13000011444 48.5600013733 2977
-2.5 48.2000007629 2978
-2.82999992371 47.8400001526 2979
-3.15000009537 47.4700012207 2980
-3.45000004768 47.0900001526 2981
-3.72000002861 46.7000007629 2982
-3.97000002861 46.3100013733 2983
-4.19999980927 45.9199981689 2984
-4.40999984741 45.5099983215 2985
-4.59000015259 45.1100006104 2986
-4.76000022888 44.6899986267 2987
-4.90000009537 44.2799987793 2988
-5.03000020981 43.8600006104 2989
-5.13000011444 43.4399986267 2990
-5.21000003815 43.0200004578 2991
-5.28000020981 42.5900001526 2992
-5.32000017166 42.1599998474 2993
-5.34999990463 41.7400016785 2994
-5.36000013351 41.3100013733 2995
-5.34999990463 40.8800010681 2996
-5.32000017166 40.4500007629 2997
-5.28000020981 40.0299987793 2998
-5.21000003815 39.5999984741 2999
-5.13999986649 39.1800003052 3000
-5.03999996185 38.7599983215 3001
-4.92999982834 38.3400001526 3002
-4.80000019073 37.9199981689 3003
-4.65999984741 37.5099983215 3004
-4.5 37.0999984741 3005
-4.32999992371 36.7000007629 3006
-4.15000009537 36.2900009155 3007
-3.95000004768 35.9000015259 3008
-3.73000001907 35.5099983215 3009
-3.50999999046 35.1199989319 3010
-3.26999998093 34.7400016785 3011
-3.01999998093 34.3699989319 3012
-2.75999999046 34 3013
-2.48000001907 33.6399993896 3014
-2.20000004768 33.2799987793 3015
-1.89999997616 32.9300003052 3016
-1.59000003338 32.5900001526 3017
-1.26999998093 32.2599983215 3018
-0.939999997616 31.9300003052 3019
-0.610000014305 31.6200008392 3020
-0.259999990463 31.3099994659 3021
0.10000000149 31.0100002289 3022
0.460000008345 30.7199993134 3023
0.839999973774 30.4400005341 3024
1.22000002861 30.1599998474 3025
1.61000001431 29.8999996185 3026
2.00999999046 29.6499996185 3027
2.41000008583 29.3999996185 3028
2.81999993324 29.1700000763 3029
3.24000000954 28.9500007629 3030
3.66000008583 28.7299995422 3031
4.09000015259 28.5300006866 3032
4.53000020981 28.3400001526 3033
4.96999979019 28.1599998474 3034
5.40999984741 27.9899997711 3035
5.86000013351 27.8299999237 3036
6.32000017166 27.6800003052 3037
6.76999998093 27.5499992371 3038
7.23000001907 27.4200000763 3039
7.69999980927 27.3099994659 3040
8.17000007629 27.2099990845 3041
8.64000034332 27.1200008392 3042
9.10999965668 27.0400009155 3043
9.57999992371 26.9799995422 3044
10.0600004196 26.9200000763 3045
10.5399999619 26.8799991608 3046
11.0200004578 26.8500003815 3047
11.5 26.8299999237 3048
11.970000267 26.8299999237 3049
12.4499998093 26.8299999237 3050
12.9300003052 26.8500003815 3051
13.4099998474 26.8799991608 3052
13.8900003433 26.9200000763 3053
14.3699998856 26.9799995422 3054
14.8400001526 27.0400009155 3055
15.3100004196 27.1200008392 3056
15.779999733 27.2099990845 3057
16.25 27.3099994659 3058
16.7099990845 27.4200000763 3059
17.1800003052 27.5499992371 3060
17.6299991608 27.6800003052 3061
18.0900001526 27.8299999237 3062
18.5400009155 27.9899997711 3063
18.9799995422 28.1599998474 3064
19.4200000763 28.3400001526 3065
19.8600006104 28.5300006866 3066
20.2900009155 28.7299995422 3067
20.7099990845 28.9500007629 3068
21.1299991608 29.1700000763 3069
21.5400009155 29.3999996185 3070
21.9400005341 29.6499996185 3071
22.3400001526 29.8999996185 3072
22.7299995422 30.1599998474 3073
23.1100006104 30.4400005341 3074
23.4899997711 30.7199993134 3075
23.8500003815 31.0100002289 3076
24.2099990845 31.3099994659 3077
24.5599994659 31.6200008392 3078
24.8899993896 31.9300003052 3079
25.2199993134 32.2599983215 3080
25.5400009155 32.5900001526 3081
25.8500003815 32.9300003052 3082
26.1499996185 33.2799987793 3083
26.4300003052 33.6399993896 3084
26.7099990845 34 3085
26.9699993134 34.3699989319 3086
27.2199993134 34.7400016785 3087
27.4599990845 35.1199989319 3088
27.6800003052 35.5099983215 3089
27.8999996185 35.9000015259 3090
28.1000003815 36.2900009155 3091
28.2800006866 36.7000007629 3092
28.4500007629 37.0999984741 3093
28.6100006104 37.5099983215 3094
28.75 37.9199981689 3095
28.8799991608 38.3400001526 3096
28.9899997711 38.7599983215 3097
29.0900001526 39.1800003052 3098
29.1599998474 39.5999984741 3099
29.2299995422 40.0299987793 3100
29.2700004578 40.4500007629 3101
29.2999992371 40.8800010681 3102
29.3099994659 41.3100013733 3103
29.2999992371 41.7400016785 3104
29.2700004578 42.1599998474 3105
29.2299995422 42.5900001526 3106
29.1599998474 43.0200004578 3107
29.0799999237 43.4399986267 3108
28.9799995422 43.8600006104 3109
28.8500003815 44.2799987793 3110
28.7099990845 44.6899986267 3111
28.5400009155 45.1100006104 3112
28.3500003815 45.5099983215 3113
28.1499996185 45.9199981689 3114
27.9200000763 46.3100013733 3115
27.6700000763 46.7000007629 3116
27.3899993896 47.0900001526 3117
27.1000003815 47.4700012207 3118
26.7800006866 47.8400001526 3119
26.4500007629 48.2000007629 3120
26.0799999237 48.5600013733 3121
25.7000007629 48.9000015259 3122
25.2999992371 49.2400016785 3123
24.8700008392 49.5600013733 3124
24.4200000763 49.8800010681 3125
23.9500007629 50.1800003052 3126
23.4599990845 50.4700012207 3127
22.9500007629 50.75 3128
22.4200000763 51.0200004578 3129
21.8799991608 51.2799987793 3130
21.3099994659 51.5200004578 3131
20.7199993134 51.7400016785 3132
20.1200008392 51.9500007629 3133
19.5 52.1500015259 3134
18.8700008392 52.3300018311 3135
18.2199993134 52.4900016785 3136
17.5599994659 52.6399993896 3137
16.8899993896 52.7700004578 3138
16.2099990845 52.8899993896 3139
15.5100002289 52.9799995422 3140
14.8199996948 53.0600013733 3141
14.1099996567 53.1300010681 3142
13.3999996185 53.1699981689 3143
12.6899995804 53.2000007629 3144
11.970000267 53.6899986267 3145
11.2600002289 53.6800003052 3146
10.5399999619 53.6500015259 3147
9.82999992371 53.6100006104 3148
9.11999988556 53.5499992371 3149
8.40999984741 53.4700012207 3150
7.71999979019 53.3800010681 3151
7.03000020981 53.2700004578 3152
6.34999990463 53.1399993896 3153
5.67999982834 53 3154
5.03000020981 52.8400001526 3155
4.38999986649 52.6599998474 3156
3.75999999046 52.4700012207 3157
3.15000009537 52.2700004578 3158
2.55999994278 52.0499992371 3159
1.98000001907 51.8199996948 3160
1.41999995708 51.5699996948 3161
0.879999995232 51.3100013733 3162
0.34999999404 51.0400009155 3163
-0.15000000596 50.7599983215 3164
-0.629999995232 50.4599990845 3165
-1.09000003338 50.1599998474 3166
-1.52999997139 49.8400001526 3167
-1.96000003815 49.5099983215 3168
-2.34999990463 49.1800003052 3169
-2.73000001907 48.8300018311 3170
-3.08999991417 48.4799995422 3171
-3.42000007629 48.1199989319 3172
-3.74000000954 47.75 3173
-4.03000020981 47.3699989319 3174
-4.30000019073 46.9900016785 3175
-4.55000019073 46.5999984741 3176
-4.78000020981 46.2000007629 3177
-4.98999977112 45.7999992371 3178
-5.17999982834 45.4000015259 3179
-5.34999990463 44.9900016785 3180
-5.5 44.5800018311 3181
-5.61999988556 44.1599998474 3182
-5.73000001907 43.7400016785 3183
-5.82000017166 43.3199996948 3184
-5.88999986649 42.9000015259 3185
-5.94999980927 42.4799995422 3186
-5.98000001907 42.0499992371 3187
-6 41.6300010681 3188
-6 41.2000007629 3189
-5.98000001907 40.7799987793 3190
-5.94000005722 40.3499984741 3191
-5.88999986649 39.9300003052 3192
-5.82999992371 39.5099983215 3193
-5.73999977112 39.0800018311 3194
-5.65000009537 38.6699981689 3195
-5.53000020981 38.25 3196
-5.40000009537 37.8400001526 3197
-5.26000022888 37.4300003052 3198
-5.09999990463 37.0200004578 3199
-4.92999982834 36.6199989319 3200
-4.75 36.2200012207 3201
-4.55000019073 35.8199996948 3202
-4.34000015259 35.4300003052 3203
-4.11999988556 35.0499992371 3204
-3.8900001049 34.6699981689 3205
-3.6400001049 34.2999992371 3206
-3.38000011444 33.9300003052 3207
-3.1099998951 33.5699996948 3208
-2.82999992371 33.2099990845 3209
-2.53999996185 32.8600006104 3210
-2.24000000954 32.5200004578 3211
-1.92999994755 32.1800003052 3212
-1.61000001431 31.8600006104 3213
-1.27999997139 31.5400009155 3214
-0.949999988079 31.2199993134 3215
-0.600000023842 30.9200000763 3216
-0.239999994636 30.6200008392 3217
0.119999997318 30.3400001526 3218
0.490000009537 30.0599994659 3219
0.870000004768 29.7900009155 3220
1.25999999046 29.5300006866 3221
1.64999997616 29.2800006866 3222
2.04999995232 29.0300006866 3223
2.46000003815 28.7999992371 3224
2.86999988556 28.5799999237 3225
3.28999996185 28.3600006104 3226
3.72000002861 28.1599998474 3227
4.15000009537 27.9699993134 3228
4.57999992371 27.7900009155 3229
5.01999998093 27.6100006104 3230
5.46000003815 27.4500007629 3231
5.90999984741 27.2999992371 3232
6.36000013351 27.1599998474 3233
6.82000017166 27.0300006866 3234
7.28000020981 26.9099998474 3235
7.73999977112 26.8099994659 3236
8.19999980927 26.7099990845 3237
8.67000007629 26.6200008392 3238
9.14000034332 26.5499992371 3239
9.60999965668 26.4899997711 3240
10.0799999237 26.4400005341 3241
10.5500001907 26.3999996185 3242
11.029999733 26.3700008392 3243
11.5 26.3500003815 3244
11.970000267 26.3400001526 3245
12.4499998093 26.3500003815 3246
12.9200000763 26.3700008392 3247
13.3999996185 26.3999996185 3248
13.8699998856 26.4400005341 3249
14.3400001526 26.4899997711 3250
14.8100004196 26.5499992371 3251
15.279999733 26.6200008392 3252
15.75 26.7099990845 3253
16.2099990845 26.8099994659 3254
16.6700000763 26.9099998474 3255
17.1299991608 27.0300006866 3256
17.5900001526 27.1599998474 3257
18.0400009155 27.2999992371 3258
18.4899997711 27.4500007629 3259
18.9300003052 27.6100006104 3260
19.3700008392 27.7900009155 3261
19.7999992371 27.9699993134 3262
20.2299995422 28.1599998474 3263
20.6599998474 28.3600006104 3264
21.0799999237 28.5799999237 3265
21.4899997711 28.7999992371 3266
21.8999996185 29.0300006866 3267
22.2999992371 29.2800006866 3268
22.6900005341 29.5300006866 3269
23.0799999237 29.7900009155 3270
23.4599990845 30.0599994659 3271
23.8299999237 30.3400001526 3272
24.1900005341 30.6200008392 3273
24.5499992371 30.9200000763 3274
24.8999996185 31.2199993134 3275
25.2299995422 31.5400009155 3276
25.5599994659 31.8600006104 3277
25.8799991608 32.1800003052 3278
26.1900005341 32.5200004578 3279
26.4899997711 32.8600006104 3280
26.7800006866 33.2099990845 3281
27.0599994659 33.5699996948 3282
27.3299999237 33.9300003052 3283
27.5900001526 34.2999992371 3284
27.8400001526 34.6699981689 3285
28.0699996948 35.0499992371 3286
28.2900009155 35.4300003052 3287
28.5 35.8199996948 3288
28.7000007629 36.2200012207 3289
28.8799991608 36.6199989319 3290
29.0499992371 37.0200004578 3291
29.2099990845 37.4300003052 3292
29.3500003815 37.8400001526 3293
29.4799995422 38.25 3294
29.5900001526 38.6699981689 3295
29.6900005341 39.0800018311 3296
29.7800006866 39.5099983215 3297
29.8400001526 39.9300003052 3298
29.8899993896 40.3499984741 3299
29.9300003052 40.7799987793 3300
29.9500007629 41.2000007629 3301
29.9500007629 41.6300010681 3302
29.9300003052 42.0499992371 3303
29.8999996185 42.4799995422 3304
29.8400001526 42.9000015259 3305
29.7700004578 43.3199996948 3306
29.6800003052 43.7400016785 3307
29.5699996948 44.1599998474 3308
29.4500007629 44.5800018311 3309
29.2999992371 44.9900016785 3310
29.1299991608 45.4000015259 3311
28.9400005341 45.7999992371 3312
28.7299995422 46.2000007629 3313
28.5 46.5999984741 3314
28.25 46.9900016785 3315
27.9799995422 47.3699989319 3316
27.6900005341 47.75 3317
27.3700008392 48.1199989319 3318
27.0400009155 48.4799995422 3319
26.6800003052 48.8300018311 3320
26.2999992371 49.1800003052 3321
25.8999996185 49.5099983215 3322
25.4799995422 49.8400001526 3323
25.0400009155 50.1599998474 3324
24.5799999237 50.4599990845 3325
24.1000003815 50.7599983215 3326
23.5900001526 51.0400009155 3327
23.0699996948 51.3100013733 3328
22.5300006866 51.5699996948 3329
21.9699993134 51.8199996948 3330
21.3899993896 52.0499992371 3331
20.7999992371 52.2700004578 3332
20.1900005341 52.4700012207 3333
19.5599994659 52.6599998474 3334
18.9200000763 52.8400001526 3335
18.2600002289 53 3336
17.6000003815 53.1399993896 3337
16.9200000763 53.2700004578 3338
16.2299995422 53.3800010681 3339
15.5399999619 53.4700012207 3340
14.8299999237 53.5499992371 3341
14.1199998856 53.6100006104 3342
13.4099998474 53.6500015259 3343
12.6899995804 53.6800003052 3344
11.970000267 54.1699981689 3345
11.220000267 54.1599998474 3346
10.470000267 54.1300010681 3347
9.72999954224 54.0900001526 3348
8.97999954224 54.0299987793 3349
8.25 53.9500007629 3350
7.51999998093 53.8499984741 3351
6.80000019073 53.7299995422 3352
6.09000015259 53.5999984741 3353
5.40000009537 53.4500007629 3354
4.71000003815 53.2799987793 3355
4.05000019073 53.0999984741 3356
3.3900001049 52.9000015259 3357
2.75999999046 52.6899986267 3358
2.1400001049 52.4599990845 3359
1.52999997139 52.2200012207 3360
0.949999988079 51.9599990845 3361
0.389999985695 51.6899986267 3362
-0.15000000596 51.4099998474 3363
-0.670000016689 51.1100006104 3364
-1.16999995708 50.7999992371 3365
-1.64999997616 50.4900016785 3366
-2.1099998951 50.1599998474 3367
-2.53999996185 49.8100013733 3368
-2.95000004768 49.4599990845 3369
-3.33999991417 49.0999984741 3370
-3.71000003815 48.7400016785 3371
-4.05000019073 48.3600006104 3372
-4.36999988556 47.9799995422 3373
-4.67000007629 47.5800018311 3374
-4.94999980927 47.1899986267 3375
-5.19999980927 46.7799987793 3376
-5.44000005722 46.3699989319 3377
-5.65000009537 45.9599990845 3378
-5.84000015259 45.5400009155 3379
-6.01000022888 45.1100006104 3380
-6.15999984741 44.6899986267 3381
-6.28999996185 44.2599983215 3382
-6.38999986649 43.8199996948 3383
-6.48000001907 43.3899993896 3384
-6.55000019073 42.9500007629 3385
-6.59999990463 42.5099983215 3386
-6.63000011444 42.0699996948 3387
-6.63999986649 41.6300010681 3388
-6.63999986649 41.1899986267 3389
-6.61999988556 40.75 3390
-6.57999992371 40.3100013733 3391
-6.51999998093 39.8699989319 3392
-6.44999980927 39.4399986267 3393
-6.36000013351 39 3394
-6.25 38.5699996948 3395
-6.13000011444 38.1399993896 3396
-5.98999977112 37.7099990845 3397
-5.84000015259 37.2900009155 3398
-5.67999982834 36.8699989319 3399
-5.5 36.4500007629 3400
-5.30999994278 36.0400009155 3401
-5.09999990463 35.6399993896 3402
-4.88000011444 35.2299995422 3403
-4.65000009537 34.8400001526 3404
-4.40999984741 34.4399986267 3405
-4.15000009537 34.0600013733 3406
-3.88000011444 33.6800003052 3407
-3.59999990463 33.3100013733 3408
-3.30999994278 32.9399986267 3409
-3.00999999046 32.5800018311 3410
-2.70000004768 32.2299995422 3411
-2.38000011444 31.8799991608 3412
-2.04999995232 31.5400009155 3413
-1.70000004768 31.2099990845 3414
-1.35000002384 30.8899993896 3415
-0.990000009537 30.5799999237 3416
-0.629999995232 30.2700004578 3417
-0.25 29.9799995422 3418
0.129999995232 29.6900005341 3419
0.52999997139 29.4099998474 3420
0.930000007153 29.1399993896 3421
1.33000004292 28.8799991608 3422
1.75 28.6299991608 3423
2.17000007629 28.3899993896 3424
2.58999991417 28.1599998474 3425
3.01999998093 27.9400005341 3426
3.46000003815 27.7299995422 3427
3.91000008583 27.5300006866 3428
4.34999990463 27.3500003815 3429
4.80999994278 27.1700000763 3430
5.26000022888 27 3431
5.73000001907 26.8500003815 3432
6.19000005722 26.7000007629 3433
6.65999984741 26.5699996948 3434
7.13000011444 26.4500007629 3435
7.61000013351 26.3400001526 3436
8.09000015259 26.2399997711 3437
8.56999969482 26.1499996185 3438
9.05000019073 26.0699996948 3439
9.53999996185 26.0100002289 3440
10.0200004578 25.9599990845 3441
10.5100002289 25.9099998474 3442
11 25.8899993896 3443
11.4899997711 25.8700008392 3444
11.970000267 25.8600006104 3445
12.4600000381 25.8700008392 3446
12.9499998093 25.8899993896 3447
13.4399995804 25.9099998474 3448
13.9300003052 25.9599990845 3449
14.4099998474 26.0100002289 3450
14.8999996185 26.0699996948 3451
15.3800001144 26.1499996185 3452
15.8599996567 26.2399997711 3453
16.3400001526 26.3400001526 3454
16.8199996948 26.4500007629 3455
17.2900009155 26.5699996948 3456
17.7600002289 26.7000007629 3457
18.2199993134 26.8500003815 3458
18.6900005341 27 3459
19.1399993896 27.1700000763 3460
19.6000003815 27.3500003815 3461
20.0400009155 27.5300006866 3462
20.4899997711 27.7299995422 3463
20.9300003052 27.9400005341 3464
21.3600006104 28.1599998474 3465
21.7800006866 28.3899993896 3466
22.2000007629 28.6299991608 3467
22.6200008392 28.8799991608 3468
23.0200004578 29.1399993896 3469
23.4200000763 29.4099998474 3470
23.8199996948 29.6900005341 3471
24.2000007629 29.9799995422 3472
24.5799999237 30.2700004578 3473
24.9400005341 30.5799999237 3474
25.2999992371 30.8899993896 3475
25.6499996185 31.2099990845 3476
25.9899997711 31.5400009155 3477
26.3299999237 31.8799991608 3478
26.6499996185 32.2299995422 3479
26.9599990845 32.5800018311 3480
27.2600002289 32.9399986267 3481
27.5499992371 33.3100013733 3482
27.8299999237 33.6800003052 3483
28.1000003815 34.0600013733 3484
28.3500003815 34.4399986267 3485
28.6000003815 34.8400001526 3486
28.8299999237 35.2299995422 3487
29.0499992371 35.6399993896 3488
29.2600002289 36.0400009155 3489
29.4500007629 36.4500007629 3490
29.6299991608 36.8699989319 3491
29.7900009155 37.2900009155 3492
29.9400005341 37.7099990845 3493
30.0799999237 38.1399993896 3494
30.2000007629 38.5699996948 3495
30.3099994659 39 3496
30.3999996185 39.4399986267 3497
30.4699993134 39.8699989319 3498
30.5300006866 40.3100013733 3499
30.5699996948 40.75 3500
30.5900001526 41.1899986267 3501
30.5900001526 41.6300010681 3502
30.5799999237 42.0699996948 3503
30.5499992371 42.5099983215 3504
30.5 42.9500007629 3505
30.4300003052 43.3899993896 3506
30.3400001526 43.8199996948 3507
30.2399997711 44.2599983215 3508
30.1100006104 44.6899986267 3509
29.9599990845 45.1100006104 3510
29.7900009155 45.5400009155 3511
29.6000003815 45.9599990845 3512
29.3899993896 46.3699989319 3513
29.1499996185 46.7799987793 3514
28.8999996185 47.1899986267 3515
28.6200008392 47.5800018311 3516
28.3199996948 47.9799995422 3517
28 48.3600006104 3518
27.6599998474 48.7400016785 3519
27.2900009155 49.0999984741 3520
26.8999996185 49.4599990845 3521
26.4899997711 49.8100013733 3522
26.0499992371 50.1599998474 3523
25.6000003815 50.4900016785 3524
25.1200008392 50.7999992371 3525
24.6200008392 51.1100006104 3526
24.1000003815 51.4099998474 3527
23.5599994659 51.6899986267 3528
23 51.9599990845 3529
22.4099998474 52.2200012207 3530
21.8099994659 52.4599990845 3531
21.1900005341 52.6899986267 3532
20.5599994659 52.9000015259 3533
19.8999996185 53.0999984741 3534
19.2399997711 53.2799987793 3535
18.5499992371 53.4500007629 3536
17.8600006104 53.5999984741 3537
17.1499996185 53.7299995422 3538
16.4300003052 53.8499984741 3539
15.6999998093 53.9500007629 3540
14.970000267 54.0299987793 3541
14.220000267 54.0900001526 3542
13.4799995422 54.1300010681 3543
12.7299995422 54.1599998474 3544
11.970000267 54.6599998474 3545
11.25 54.6500015259 3546
10.5200004578 54.6199989319 3547
9.80000019073 54.5800018311 3548
9.07999992371 54.5299987793 3549
8.35999965668 54.4500007629 3550
7.65000009537 54.3699989319 3551
6.94999980927 54.2599983215 3552
6.26000022888 54.1399993896 3553
5.57999992371 54.0099983215 3554
4.92000007629 53.8600006104 3555
4.26000022888 53.6899986267 3556
3.61999988556 53.5200004578 3557
2.99000000954 53.3199996948 3558
2.36999988556 53.1199989319 3559
1.77999997139 52.9000015259 3560
1.20000004768 52.6599998474 3561
0.629999995232 52.4199981689 3562
0.0900000035763 52.1599998474 3563
-0.439999997616 51.8899993896 3564
-0.949999988079 51.6100006104 3565
-1.44000005722 51.3199996948 3566
-1.90999996662 51.0200004578 3567
-2.3599998951 50.7099990845 3568
-2.78999996185 50.3899993896 3569
-3.20000004768 50.0600013733 3570
-3.58999991417 49.7200012207 3571
-3.96000003815 49.3800010681 3572
-4.30999994278 49.0200004578 3573
-4.63000011444 48.6599998474 3574
-4.94000005722 48.2900009155 3575
-5.23000001907 47.9199981689 3576
-5.5 47.5400009155 3577
-5.75 47.1500015259 3578
-5.98000001907 46.7599983215 3579
-6.19000005722 46.3600006104 3580
-6.38000011444 45.9599990845 3581
-6.55000019073 45.5600013733 3582
-6.69999980927 45.1500015259 3583
-6.84000015259 44.7400016785 3584
-6.96000003815 44.3300018311 3585
-7.05999994278 43.9099998474 3586
-7.13999986649 43.5 3587
-7.19999980927 43.0800018311 3588
-7.25 42.6599998474 3589
-7.28000020981 42.2400016785 3590
-7.28999996185 41.8199996948 3591
-7.28999996185 41.4000015259 3592
-7.26999998093 40.9799995422 3593
-7.23999977112 40.5600013733 3594
-7.19000005722 40.1399993896 3595
-7.13000011444 39.7200012207 3596
-7.05000019073 39.2999992371 3597
-6.96000003815 38.8800010681 3598
-6.86000013351 38.4700012207 3599
-6.73999977112 38.0600013733 3600
-6.61000013351 37.6500015259 3601
-6.46000003815 37.25 3602
-6.30999994278 36.8499984741 3603
-6.13999986649 36.4500007629 3604
-5.96000003815 36.0499992371 3605
-5.76000022888 35.6599998474 3606
-5.55999994278 35.2700004578 3607
-5.34000015259 34.8899993896 3608
-5.11000013351 34.5099983215 3609
-4.88000011444 34.1399993896 3610
-4.63000011444 33.7700004578 3611
-4.36999988556 33.4099998474 3612
-4.09999990463 33.0600013733 3613
-3.81999993324 32.7099990845 3614
-3.52999997139 32.3600006104 3615
-3.24000000954 32.0200004578 3616
-2.93000006676 31.6900005341 3617
-2.61999988556 31.3700008392 3618
-2.28999996185 31.0499992371 3619
-1.96000003815 30.7399997711 3620
-1.62000000477 30.4300003052 3621
-1.27999997139 30.1399993896 3622
-0.920000016689 29.8500003815 3623
-0.560000002384 29.5699996948 3624
-0.189999997616 29.2900009155 3625
0.180000007153 29.0300006866 3626
0.560000002384 28.7700004578 3627
0.949999988079 28.5200004578 3628
1.34000003338 28.2800006866 3629
1.74000000954 28.0499992371 3630
2.15000009537 27.8299999237 3631
2.55999994278 27.6200008392 3632
2.97000002861 27.4099998474 3633
3.3900001049 27.2199993134 3634
3.81999993324 27.0300006866 3635
4.25 26.8600006104 3636
4.67999982834 26.6900005341 3637
5.11999988556 26.5300006866 3638
5.55999994278 26.3799991608 3639
6 26.25 3640
6.44999980927 26.1200008392 3641
6.90000009537 26 3642
7.34999990463 25.8899993896 3643
7.80999994278 25.7999992371 3644
8.27000045776 25.7099990845 3645
8.72999954224 25.6299991608 3646
9.18999958038 25.5599994659 3647
9.64999961853 25.5100002289 3648
10.1099996567 25.4599990845 3649
10.5799999237 25.4200000763 3650
11.0399999619 25.3999996185 3651
11.5100002289 25.3799991608 3652
11.970000267 25.3799991608 3653
12.4399995804 25.3799991608 3654
12.9099998474 25.3999996185 3655
13.3699998856 25.4200000763 3656
13.8400001526 25.4599990845 3657
14.3000001907 25.5100002289 3658
14.7600002289 25.5599994659 3659
15.220000267 25.6299991608 3660
15.6800003052 25.7099990845 3661
16.1399993896 25.7999992371 3662
16.6000003815 25.8899993896 3663
17.0499992371 26 3664
17.5 26.1200008392 3665
17.9500007629 26.25 3666
18.3899993896 26.3799991608 3667
18.8299999237 26.5300006866 3668
19.2700004578 26.6900005341 3669
19.7000007629 26.8600006104 3670
20.1299991608 27.0300006866 3671
20.5599994659 27.2199993134 3672
20.9799995422 27.4099998474 3673
21.3899993896 27.6200008392 3674
21.7999992371 27.8299999237 3675
22.2099990845 28.0499992371 3676
22.6100006104 28.2800006866 3677
23 28.5200004578 3678
23.3899993896 28.7700004578 3679
23.7700004578 29.0300006866 3680
24.1399993896 29.2900009155 3681
24.5100002289 29.5699996948 3682
24.8700008392 29.8500003815 3683
25.2299995422 30.1399993896 3684
25.5699996948 30.4300003052 3685
25.9099998474 30.7399997711 3686
26.2399997711 31.0499992371 3687
26.5699996948 31.3700008392 3688
26.8799991608 31.6900005341 3689
27.1900005341 32.0200004578 3690
27.4799995422 32.3600006104 3691
27.7700004578 32.7099990845 3692
28.0499992371 33.0600013733 3693
28.3199996948 33.4099998474 3694
28.5799999237 33.7700004578 3695
28.8299999237 34.1399993896 3696
29.0599994659 34.5099983215 3697
29.2900009155 34.8899993896 3698
29.5100002289 35.2700004578 3699
29.7099990845 35.6599998474 3700
29.9099998474 36.0499992371 3701
30.0900001526 36.4500007629 3702
30.2600002289 36.8499984741 3703
30.4099998474 37.25 3704
30.5599994659 37.6500015259 3705
30.6900005341 38.0600013733 3706
30.8099994659 38.4700012207 3707
30.9099998474 38.8800010681 3708
31 39.2999992371 3709
31.0799999237 39.7200012207 3710
31.1399993896 40.1399993896 3711
31.1900005341 40.5600013733 3712
31.2199993134 40.9799995422 3713
31.2399997711 41.4000015259 3714
31.2399997711 41.8199996948 3715
31.2299995422 42.2400016785 3716
31.2000007629 42.6599998474 3717
31.1499996185 43.0800018311 3718
31.0900001526 43.5 3719
31 43.9099998474 3720
30.9099998474 44.3300018311 3721
30.7900009155 44.7400016785 3722
30.6499996185 45.1500015259 3723
30.5 45.5600013733 3724
30.3299999237 45.9599990845 3725
30.1399993896 46.3600006104 3726
29.9300003052 46.7599983215 3727
29.7000007629 47.1500015259 3728
29.4500007629 47.5400009155 3729
29.1800003052 47.9199981689 3730
28.8899993896 48.2900009155 3731
28.5799999237 48.6599998474 3732
28.2600002289 49.0200004578 3733
27.9099998474 49.3800010681 3734
27.5400009155 49.7200012207 3735
27.1499996185 50.0600013733 3736
26.7399997711 50.3899993896 3737
26.3099994659 50.7099990845 3738
25.8600006104 51.0200004578 3739
25.3899993896 51.3199996948 3740
24.8999996185 51.6100006104 3741
24.3899993896 51.8899993896 3742
23.8600006104 52.1599998474 3743
23.3199996948 52.4199981689 3744
22.75 52.6599998474 3745
22.1700000763 52.9000015259 3746
21.5799999237 53.1199989319 3747
20.9599990845 53.3199996948 3748
20.3299999237 53.5200004578 3749
19.6900005341 53.6899986267 3750
19.0300006866 53.8600006104 3751
18.3700008392 54.0099983215 3752
17.6900005341 54.1399993896 3753
16.9899997711 54.2599983215 3754
16.2900009155 54.3699989319 3755
15.5900001526 54.4500007629 3756
14.8699998856 54.5299987793 3757
14.1499996185 54.5800018311 3758
13.4300003052 54.6199989319 3759
12.6999998093 54.6500015259 3760
11.970000267 55.1399993896 3761
11.2100000381 55.1399993896 3762
10.4499998093 55.1100006104 3763
9.69999980927 55.0699996948 3764
8.94999980927 55.0099983215 3765
8.19999980927 54.9300003052 3766
7.46000003815 54.8400001526 3767
6.73000001907 54.7299995422 3768
6.01000022888 54.6100006104 3769
5.30000019073 54.4700012207 3770
4.59999990463 54.3100013733 3771
3.92000007629 54.1399993896 3772
3.25 53.9500007629 3773
2.59999990463 53.75 3774
1.96000003815 53.5400009155 3775
1.34000003338 53.3100013733 3776
0.730000019073 53.0699996948 3777
0.15000000596 52.8100013733 3778
-0.409999996424 52.5400009155 3779
-0.959999978542 52.2599983215 3780
-1.49000000954 51.9700012207 3781
-1.99000000954 51.6699981689 3782
-2.48000001907 51.3600006104 3783
-2.94000005722 51.0299987793 3784
-3.38000011444 50.7000007629 3785
-3.79999995232 50.3600006104 3786
-4.19999980927 50 3787
-4.57999992371 49.6500015259 3788
-4.94000005722 49.2799987793 3789
-5.28000020981 48.9000015259 3790
-5.59000015259 48.5200004578 3791
-5.88999986649 48.1300010681 3792
-6.15999984741 47.7400016785 3793
-6.40999984741 47.3400001526 3794
-6.65000009537 46.9300003052 3795
-6.86000013351 46.5200004578 3796
-7.05000019073 46.1100006104 3797
-7.21999979019 45.6899986267 3798
-7.38000011444 45.2700004578 3799
-7.51000022888 44.8400001526 3800
-7.63000011444 44.4199981689 3801
-7.73000001907 43.9900016785 3802
-7.80000019073 43.5600013733 3803
-7.86999988556 43.1199989319 3804
-7.90999984741 42.6899986267 3805
-7.94000005722 42.2599983215 3806
-7.94999980927 41.8199996948 3807
-7.94000005722 41.3899993896 3808
-7.92000007629 40.9500007629 3809
-7.88000011444 40.5200004578 3810
-7.82999992371 40.0800018311 3811
-7.76000022888 39.6500015259 3812
-7.67999982834 39.2200012207 3813
-7.57999992371 38.7900009155 3814
-7.46999979019 38.3699989319 3815
-7.34000015259 37.9399986267 3816
-7.19999980927 37.5200004578 3817
-7.05000019073 37.1100006104 3818
-6.88999986649 36.6899986267 3819
-6.71000003815 36.2799987793 3820
-6.51999998093 35.8699989319 3821
-6.32000017166 35.4700012207 3822
-6.09999990463 35.0699996948 3823
-5.88000011444 34.6800003052 3824
-5.63999986649 34.2900009155 3825
-5.38999986649 33.9099998474 3826
-5.13000011444 33.5299987793 3827
-4.86999988556 33.1599998474 3828
-4.59000015259 32.7900009155 3829
-4.30000019073 32.4300003052 3830
-4 32.0699996948 3831
-3.69000005722 31.7299995422 3832
-3.38000011444 31.3799991608 3833
-3.04999995232 31.0499992371 3834
-2.72000002861 30.7199993134 3835
-2.38000011444 30.3999996185 3836
-2.02999997139 30.0900001526 3837
-1.66999995708 29.7900009155 3838
-1.29999995232 29.4899997711 3839
-0.930000007153 29.2000007629 3840
-0.550000011921 28.9200000763 3841
-0.159999996424 28.6499996185 3842
0.230000004172 28.3799991608 3843
0.629999995232 28.1299991608 3844
1.03999996185 27.8799991608 3845
1.45000004768 27.6399993896 3846
1.86000001431 27.4099998474 3847
2.28999996185 27.1900005341 3848
2.71000003815 26.9799995422 3849
3.15000009537 26.7800006866 3850
3.57999992371 26.5900001526 3851
4.03000020981 26.4099998474 3852
4.46999979019 26.2399997711 3853
4.92000007629 26.0799999237 3854
5.38000011444 25.9200000763 3855
5.82999992371 25.7800006866 3856
6.28999996185 25.6499996185 3857
6.76000022888 25.5300006866 3858
7.21999979019 25.4200000763 3859
7.69000005722 25.3199996948 3860
8.15999984741 25.2299995422 3861
8.63000011444 25.1499996185 3862
9.10999965668 25.0799999237 3863
9.57999992371 25.0200004578 3864
10.0600004196 24.9699993134 3865
10.5399999619 24.9400005341 3866
11.0200004578 24.9099998474 3867
11.5 24.8899993896 3868
11.970000267 24.8899993896 3869
12.4499998093 24.8899993896 3870
12.9300003052 24.9099998474 3871
13.4099998474 24.9400005341 3872
13.8900003433 24.9699993134 3873
14.3699998856 25.0200004578 3874
14.8400001526 25.0799999237 3875
15.3199996948 25.1499996185 3876
15.7899999619 25.2299995422 3877
16.2600002289 25.3199996948 3878
16.7299995422 25.4200000763 3879
17.1900005341 25.5300006866 3880
17.6599998474 25.6499996185 3881
18.1200008392 25.7800006866 3882
18.5699996948 25.9200000763 3883
19.0300006866 26.0799999237 3884
19.4799995422 26.2399997711 3885
19.9200000763 26.4099998474 3886
20.3700008392 26.5900001526 3887
20.7999992371 26.7800006866 3888
21.2399997711 26.9799995422 3889
21.6599998474 27.1900005341 3890
22.0900001526 27.4099998474 3891
22.5 27.6399993896 3892
22.9099998474 27.8799991608 3893
23.3199996948 28.1299991608 3894
23.7199993134 28.3799991608 3895
24.1100006104 28.6499996185 3896
24.5 28.9200000763 3897
24.8799991608 29.2000007629 3898
25.25 29.4899997711 3899
25.6200008392 29.7900009155 3900
25.9799995422 30.0900001526 3901
26.3299999237 30.3999996185 3902
26.6700000763 30.7199993134 3903
27 31.0499992371 3904
27.3299999237 31.3799991608 3905
27.6399993896 31.7299995422 3906
27.9500007629 32.0699996948 3907
28.25 32.4300003052 3908
28.5400009155 32.7900009155 3909
28.8199996948 33.1599998474 3910
29.0799999237 33.5299987793 3911
29.3400001526 33.9099998474 3912
29.5900001526 34.2900009155 3913
29.8299999237 34.6800003052 3914
30.0499992371 35.0699996948 3915
30.2600002289 35.4700012207 3916
30.4699993134 35.8699989319 3917
30.6599998474 36.2799987793 3918
30.8400001526 36.6899986267 3919
31 37.1100006104 3920
31.1499996185 37.5200004578 3921
31.2900009155 37.9399986267 3922
31.4200000763 38.3699989319 3923
31.5300006866 38.7900009155 3924
31.6299991608 39.2200012207 3925
31.7099990845 39.6500015259 3926
31.7800006866 40.0800018311 3927
31.8299999237 40.5200004578 3928
31.8700008392 40.9500007629 3929
31.8899993896 41.3899993896 3930
31.8999996185 41.8199996948 3931
31.8899993896 42.2599983215 3932
31.8600006104 42.6899986267 3933
31.8199996948 43.1199989319 3934
31.75 43.5600013733 3935
31.6800003052 43.9900016785 3936
31.5799999237 44.4199981689 3937
31.4599990845 44.8400001526 3938
31.3299999237 45.2700004578 3939
31.1700000763 45.6899986267 3940
31 46.1100006104 3941
30.8099994659 46.5200004578 3942
30.6000003815 46.9300003052 3943
30.3600006104 47.3400001526 3944
30.1100006104 47.7400016785 3945
29.8400001526 48.1300010681 3946
29.5400009155 48.5200004578 3947
29.2299995422 48.9000015259 3948
28.8899993896 49.2799987793 3949
28.5300006866 49.6500015259 3950
28.1499996185 50 3951
27.75 50.3600006104 3952
27.3299999237 50.7000007629 3953
26.8899993896 51.0299987793 3954
26.4300003052 51.3600006104 3955
25.9400005341 51.6699981689 3956
25.4400005341 51.9700012207 3957
24.9099998474 52.2599983215 3958
24.3600006104 52.5400009155 3959
23.7999992371 52.8100013733 3960
23.2099990845 53.0699996948 3961
22.6100006104 53.3100013733 3962
21.9899997711 53.5400009155 3963
21.3500003815 53.75 3964
20.7000007629 53.9500007629 3965
20.0300006866 54.1399993896 3966
19.3500003815 54.3100013733 3967
18.6499996185 54.4700012207 3968
17.9400005341 54.6100006104 3969
17.2199993134 54.7299995422 3970
16.4899997711 54.8400001526 3971
15.75 54.9300003052 3972
15 55.0099983215 3973
14.25 55.0699996948 3974
13.4899997711 55.1100006104 3975
12.7399997711 55.1399993896 3976
11.970000267 55.6300010681 3977
11.1800003052 55.6300010681 3978
10.3900003433 55.5999984741 3979
9.60000038147 55.5499992371 3980
8.81000041962 55.4900016785 3981
8.02999973297 55.4099998474 3982
7.26000022888 55.3199996948 3983
6.5 55.2000007629 3984
5.75 55.0699996948 3985
5.01000022888 54.9300003052 3986
4.28000020981 54.7599983215 3987
3.56999993324 54.5900001526 3988
2.88000011444 54.3899993896 3989
2.20000004768 54.1800003052 3990
1.52999997139 53.9599990845 3991
0.889999985695 53.7200012207 3992
0.259999990463 53.4700012207 3993
-0.340000003576 53.2000007629 3994
-0.930000007153 52.9199981689 3995
-1.49000000954 52.6300010681 3996
-2.02999997139 52.3300018311 3997
-2.55999994278 52.0099983215 3998
-3.05999994278 51.6899986267 3999
-3.52999997139 51.3499984741 4000
-3.99000000954 51.0099983215 4001
-4.42000007629 50.6500015259 4002
-4.82999992371 50.2900009155 4003
-5.21999979019 49.9099998474 4004
-5.59000015259 49.5299987793 4005
-5.92999982834 49.1399993896 4006
-6.25 48.75 4007
-6.55000019073 48.3400001526 4008
-6.82999992371 47.9399986267 4009
-7.09000015259 47.5200004578 4010
-7.32000017166 47.0999984741 4011
-7.53999996185 46.6800003052 4012
-7.73000001907 46.25 4013
-7.90000009537 45.8199996948 4014
-8.06000041962 45.3800010681 4015
-8.18999958038 44.9399986267 4016
-8.31000041962 44.5 4017
-8.39999961853 44.0600013733 4018
-8.47999954224 43.6100006104 4019
-8.53999996185 43.1699981689 4020
-8.57999992371 42.7200012207 4021
-8.60000038147 42.2700004578 4022
-8.60999965668 41.8199996948 4023
-8.60000038147 41.3699989319 4024
-8.56999969482 40.9199981689 4025
-8.52999973297 40.4799995422 4026
-8.47000026703 40.0299987793 4027
-8.39000034332 39.5900001526 4028
-8.30000019073 39.1399993896 4029
-8.19999980927 38.7000007629 4030
-8.07999992371 38.2599983215 4031
-7.94999980927 37.8300018311 4032
-7.80000019073 37.3899993896 4033
-7.63999986649 36.9599990845 4034
-7.46000003815 36.5400009155 4035
-7.28000020981 36.1100006104 4036
-7.07999992371 35.6899986267 4037
-6.86999988556 35.2799987793 4038
-6.65000009537 34.8699989319 4039
-6.40999984741 34.4599990845 4040
-6.17000007629 34.0600013733 4041
-5.90999984741 33.6699981689 4042
-5.63999986649 33.2799987793 4043
-5.36000013351 32.9000015259 4044
-5.07000017166 32.5200004578 4045
-4.78000020981 32.1500015259 4046
-4.46999979019 31.7800006866 4047
-4.15000009537 31.4300003052 4048
-3.81999993324 31.0699996948 4049
-3.49000000954 30.7299995422 4050
-3.1400001049 30.3899993896 4051
-2.78999996185 30.0699996948 4052
-2.43000006676 29.7399997711 4053
-2.05999994278 29.4300003052 4054
-1.67999994755 29.1200008392 4055
-1.29999995232 28.8299999237 4056
-0.910000026226 28.5400009155 4057
-0.509999990463 28.2600002289 4058
-0.10000000149 27.9899997711 4059
0.310000002384 27.7199993134 4060
0.730000019073 27.4699993134 4061
1.14999997616 27.2299995422 4062
1.58000004292 26.9899997711 4063
2.00999999046 26.7700004578 4064
2.46000003815 26.5499992371 4065
2.90000009537 26.3400001526 4066
3.34999990463 26.1499996185 4067
3.79999995232 25.9599990845 4068
4.26000022888 25.7800006866 4069
4.73000001907 25.6200008392 4070
5.19000005722 25.4599990845 4071
5.65999984741 25.3199996948 4072
6.13000011444 25.1800003052 4073
6.61000013351 25.0599994659 4074
7.09000015259 24.9400005341 4075
7.57000017166 24.8400001526 4076
8.05000019073 24.75 4077
8.53999996185 24.6700000763 4078
9.02999973297 24.5900001526 4079
9.52000045776 24.5300006866 4080
10.0100002289 24.4799995422 4081
10.5 24.4500007629 4082
10.9899997711 24.4200000763 4083
11.4799995422 24.3999996185 4084
11.970000267 24.3999996185 4085
12.470000267 24.3999996185 4086
12.9600000381 24.4200000763 4087
13.4499998093 24.4500007629 4088
13.9399995804 24.4799995422 4089
14.4300003052 24.5300006866 4090
14.9200000763 24.5900001526 4091
15.4099998474 24.6700000763 4092
15.8999996185 24.75 4093
16.3799991608 24.8400001526 4094
16.8600006104 24.9400005341 4095
17.3400001526 25.0599994659 4096
17.8099994659 25.1800003052 4097
18.2900009155 25.3199996948 4098
18.7600002289 25.4599990845 4099
19.2199993134 25.6200008392 4100
19.6900005341 25.7800006866 4101
20.1499996185 25.9599990845 4102
20.6000003815 26.1499996185 4103
21.0499992371 26.3400001526 4104
21.4899997711 26.5499992371 4105
21.9300003052 26.7700004578 4106
22.3700008392 26.9899997711 4107
22.7999992371 27.2299995422 4108
23.2199993134 27.4699993134 4109
23.6399993896 27.7199993134 4110
24.0499992371 27.9899997711 4111
24.4599990845 28.2600002289 4112
24.8600006104 28.5400009155 4113
25.25 28.8299999237 4114
25.6299991608 29.1200008392 4115
26.0100002289 29.4300003052 4116
26.3799991608 29.7399997711 4117
26.7399997711 30.0699996948 4118
27.0900001526 30.3899993896 4119
27.4400005341 30.7299995422 4120
27.7700004578 31.0699996948 4121
28.1000003815 31.4300003052 4122
28.4200000763 31.7800006866 4123
28.7199993134 32.1500015259 4124
29.0200004578 32.5200004578 4125
29.3099994659 32.9000015259 4126
29.5900001526 33.2799987793 4127
29.8600006104 33.6699981689 4128
30.1200008392 34.0600013733 4129
30.3600006104 34.4599990845 4130
30.6000003815 34.8699989319 4131
30.8199996948 35.2799987793 4132
31.0300006866 35.6899986267 4133
31.2299995422 36.1100006104 4134
31.4099998474 36.5400009155 4135
31.5900001526 36.9599990845 4136
31.75 37.3899993896 4137
31.8899993896 37.8300018311 4138
32.0299987793 38.2599983215 4139
32.1500015259 38.7000007629 4140
32.25 39.1399993896 4141
32.3400001526 39.5900001526 4142
32.4199981689 40.0299987793 4143
32.4700012207 40.4799995422 4144
32.5200004578 40.9199981689 4145
32.5499992371 41.3699989319 4146
32.5600013733 41.8199996948 4147
32.5499992371 42.2700004578 4148
32.5299987793 42.7200012207 4149
32.4900016785 43.1699981689 4150
32.4300003052 43.6100006104 4151
32.3499984741 44.0600013733 4152
32.2599983215 44.5 4153
32.1399993896 44.9399986267 4154
32.0099983215 45.3800010681 4155
31.8500003815 45.8199996948 4156
31.6800003052 46.25 4157
31.4899997711 46.6800003052 4158
31.2700004578 47.0999984741 4159
31.0400009155 47.5200004578 4160
30.7800006866 47.9399986267 4161
30.5 48.3400001526 4162
30.2000007629 48.75 4163
29.8799991608 49.1399993896 4164
29.5400009155 49.5299987793 4165
29.1700000763 49.9099998474 4166
28.7800006866 50.2900009155 4167
28.3700008392 50.6500015259 4168
27.9400005341 51.0099983215 4169
27.4799995422 51.3499984741 4170
27.0100002289 51.6899986267 4171
26.5100002289 52.0099983215 4172
25.9799995422 52.3300018311 4173
25.4400005341 52.6300010681 4174
24.8799991608 52.9199981689 4175
24.2900009155 53.2000007629 4176
23.6900005341 53.4700012207 4177
23.0599994659 53.7200012207 4178
22.4200000763 53.9599990845 4179
21.75 54.1800003052 4180
21.0699996948 54.3899993896 4181
20.3799991608 54.5900001526 4182
19.6700000763 54.7599983215 4183
18.9400005341 54.9300003052 4184
18.2000007629 55.0699996948 4185
17.4500007629 55.2000007629 4186
16.6900005341 55.3199996948 4187
15.9200000763 55.4099998474 4188
15.1400003433 55.4900016785 4189
14.3500003815 55.5499992371 4190
13.5600004196 55.5999984741 4191
12.7700004578 55.6300010681 4192
11.970000267 56.1300010681 4193
11.1800003052 56.1199989319 4194
10.3800001144 56.0900001526 4195
9.59000015259 56.0499992371 4196
8.80000019073 55.9900016785 4197
8.02000045776 55.9199981689 4198
7.25 55.8199996948 4199
6.48000001907 55.7099990845 4200
5.73000001907 55.5900001526 4201
4.98999977112 55.4500007629 4202
4.25 55.2900009155 4203
3.53999996185 55.1199989319 4204
2.82999992371 54.9300003052 4205
2.15000009537 54.7299995422 4206
1.48000001907 54.5099983215 4207
0.829999983311 54.2799987793 4208
0.189999997616 54.0400009155 4209
-0.419999986887 53.7799987793 4210
-1.01999998093 53.5099983215 4211
-1.59000003338 53.2299995422 4212
-2.15000009537 52.9399986267 4213
-2.68000006676 52.6300010681 4214
-3.20000004768 52.3199996948 4215
-3.69000005722 51.9900016785 4216
-4.15999984741 51.6599998474 4217
-4.61000013351 51.3100013733 4218
-5.03000020981 50.9599990845 4219
-5.44000005722 50.5999984741 4220
-5.82000017166 50.2200012207 4221
-6.17999982834 49.8499984741 4222
-6.51999998093 49.4599990845 4223
-6.84000015259 49.0699996948 4224
-7.13999986649 48.6699981689 4225
-7.42000007629 48.2700004578 4226
-7.67999982834 47.8600006104 4227
-7.90999984741 47.4399986267 4228
-8.13000011444 47.0200004578 4229
-8.32999992371 46.5999984741 4230
-8.5 46.1699981689 4231
-8.65999984741 45.7400016785 4232
-8.80000019073 45.3100013733 4233
-8.92000007629 44.8699989319 4234
-9.02000045776 44.4399986267 4235
-9.10000038147 44 4236
-9.17000007629 43.5499992371 4237
-9.22000026703 43.1100006104 4238
-9.25 42.6699981689 4239
-9.27000045776 42.2200012207 4240
-9.27000045776 41.7799987793 4241
-9.25 41.3400001526 4242
-9.22000026703 40.8899993896 4243
-9.17000007629 40.4500007629 4244
-9.10999965668 40.0099983215 4245
-9.03999996185 39.5699996948 4246
-8.93999958038 39.1300010681 4247
-8.84000015259 38.6899986267 4248
-8.72000026703 38.2599983215 4249
-8.59000015259 37.8300018311 4250
-8.44999980927 37.4000015259 4251
-8.28999996185 36.9700012207 4252
-8.11999988556 36.5499992371 4253
-7.94000005722 36.1300010681 4254
-7.73999977112 35.7200012207 4255
-7.53999996185 35.2999992371 4256
-7.32000017166 34.9000015259 4257
-7.09000015259 34.4900016785 4258
-6.86000013351 34.0999984741 4259
-6.61000013351 33.7000007629 4260
-6.34999990463 33.3199996948 4261
-6.07999992371 32.9300003052 4262
-5.80000019073 32.5600013733 4263
-5.51000022888 32.1800003052 4264
-5.21000003815 31.8199996948 4265
-4.90999984741 31.4599990845 4266
-4.59000015259 31.1100006104 4267
-4.26999998093 30.7600002289 4268
-3.93000006676 30.4200000763 4269
-3.58999991417 30.0900001526 4270
-3.24000000954 29.7600002289 4271
-2.8900001049 29.4500007629 4272
-2.51999998093 29.1399993896 4273
-2.15000009537 28.8299999237 4274
-1.77999997139 28.5400009155 4275
-1.38999998569 28.25 4276
-1 27.9699993134 4277
-0.600000023842 27.7000007629 4278
-0.20000000298 27.4400005341 4279
0.209999993443 27.1800003052 4280
0.629999995232 26.9400005341 4281
1.04999995232 26.7000007629 4282
1.48000001907 26.4699993134 4283
1.90999996662 26.2600002289 4284
2.33999991417 26.0499992371 4285
2.77999997139 25.8500003815 4286
3.23000001907 25.6499996185 4287
3.68000006676 25.4699993134 4288
4.13000011444 25.2999992371 4289
4.59000015259 25.1399993896 4290
5.05000019073 24.9899997711 4291
5.51000022888 24.8400001526 4292
5.98000001907 24.7099990845 4293
6.44999980927 24.5900001526 4294
